# .PCD v0.7 - Point Cloud Data file format
VERSION 0.7
FIELDS x y z
SIZE 4 4 4
TYPE F F F
COUNT 1 1 1
WIDTH 1482
HEIGHT 1
VIEWPOINT 0 0 0 1 0 0 0
POINTS 1482
DATA ascii
5.4976592 0.83685309 -0.42716792
7.4397445 0.225234 0.33651191
7.3942676 0.22875595 -0.22585966
7.3111396 0.2867294 1.344353
7.4212055 0.22249781 0.52367622
7.0260887 0.33284515 -0.40927085
7.4685612 0.22392583 1.3759217
7.4250312 0.20583591 0.33752459
7.4592075 0.20195854 0.71072638
7.4568973 0.20456693 0.80430019
7.4777322 0.20524617 1.1859076
7.479959 0.20641677 1.2822894
10.813882 -0.87240517 2.2125311
7.3668747 0.21421555 0.34191677
7.4808645 0.17992491 0.52226126
6.3265381 0.54463804 -0.41779479
11.134806 -1.0169919 1.3444345
7.4173446 0.18613231 -0.23281428
7.439178 0.18260381 -0.044050109
6.3237257 0.53621244 -0.41762894
10.750366 -0.92186469 0.95750123
11.081586 -1.0254552 1.3405629
7.4835196 0.17868128 1.1882575
7.4819479 0.18109728 1.2843226
7.4875512 0.18114594 1.3824083
10.772235 -0.90463144 2.2071867
5.8528223 0.6862576 -0.42804852
10.940785 -1.0181975 0.60856867
10.706859 -0.93207848 0.95627213
6.7577896 0.37973472 -0.41504246
7.5535941 0.13779135 1.0038708
10.788779 -0.93520099 2.2129698
7.4066319 0.1635368 0.33867046
10.91186 -1.0331857 0.42891562
10.902102 -1.026324 0.60902673
10.895947 -1.0207301 0.78732073
10.657054 -0.93577451 0.95461321
7.0154023 0.28265029 -0.40998793
10.968985 -1.0350415 1.3319997
7.4653473 0.13878958 0.71234173
7.4724731 0.13817894 0.80695838
10.655416 -0.95375401 1.1294986
7.4190373 0.1362517 -0.23573354
7.431613 0.13564762 -0.044496845
7.4784665 0.11701746 0.52291483
6.1222725 0.5714767 -0.41383532
10.902328 -1.0746967 0.60983109
10.907512 -1.0730177 0.78874636
10.680409 -0.99057817 0.9571898
10.662839 -0.9810673 1.1310078
10.906899 -1.0622917 1.328323
7.4851961 0.12958531 1.2884004
10.679605 -1.0110201 0.95781368
5.4779978 0.78429985 -0.42518249
6.311317 0.48874897 -0.41810325
7.4814658 0.097336844 0.80858231
6.7461405 0.33451268 -0.41538617
7.484539 0.098110028 0.90465617
7.4911714 0.097621053 1.0007819
5.3752112 0.81464612 -0.42461929
7.4248509 0.094845489 0.33686763
7.4813681 0.081887051 0.71394014
7.505372 0.075146019 0.81014347
7.5365958 0.065867856 0.90894514
6.9999418 0.23267856 -0.40958351
7.41433 0.08750505 -0.23738387
7.4343643 0.084010556 -0.046911787
7.4252701 0.0842233 0.33675918
10.895983 -1.1534331 1.151327
7.4808626 0.080702215 1.1940825
7.4829187 0.081840694 1.291476
7.4901958 0.081128851 1.3907077
5.8351183 0.63593209 -0.42707026
6.1131387 0.53478169 -0.41461265
7.4397764 0.072705559 0.71359456
7.4750161 0.061701261 0.80949748
7.5268312 0.044726301 0.90923107
7.5346069 0.026876962 0.81273478
10.930387 -1.2163538 1.155839
7.5627651 0.020307845 1.0101939
7.4523339 0.03866915 -0.14940828
7.5356679 0.016731666 0.91086936
7.4191275 0.037880346 -0.24118942
5.5756745 0.71140212 -0.42540607
7.4348907 0.029485101 0.33561572
5.8246498 0.61814088 -0.42507005
7.4221106 0.036098115 0.43105942
7.5120425 0.0060207131 0.61988294
7.4855556 0.017772513 0.71555179
7.4925685 0.016981864 0.81156451
7.4841318 0.025663799 1.1002485
7.4826198 0.028094305 1.1977059
7.4790459 0.031286374 1.2945979
7.4880786 0.029813634 1.3945179
7.4946952 0.0292749 1.4959308
5.3658485 0.78417331 -0.42502898
6.2914286 0.43446317 -0.41705886
6.7283549 0.26932919 -0.41597027
10.958926 -1.2997078 1.1608593
7.5481005 -0.013307574 1.0106691
7.2167397 0.092446551 -0.011192447
7.4007921 0.018250404 0.33802423
7.4456549 0.0083399229 0.71523535
7.5199056 -0.018074447 0.81367022
7.5172615 -0.015211951 0.91111273
7.4526725 -0.01084404 -0.15194708
7.240202 0.069105692 0.4404746
7.2455759 0.070468761 0.62099588
7.2453222 0.072274819 0.71094847
7.2990851 0.053367425 0.80353439
7.3470044 0.036765158 0.89923155
6.976932 0.15415485 -0.40978211
7.3704734 0.029553376 0.99450272
7.4719596 -0.0055800667 1.198609
7.4300294 -0.015038505 -0.14799492
5.6970606 0.63829833 -0.43122151
6.0976906 0.48315948 -0.41511449
7.2444959 0.06640429 1.0736842
7.3451233 0.0027031279 -0.22796993
7.1985946 0.061952882 -0.10144119
7.3221407 0.043629449 1.4617374
5.8229012 0.5829317 -0.42937627
6.7149262 0.23440363 -0.41530696
6.971282 0.13426585 -0.40997303
7.1863604 0.079801634 1.1577786
7.1758518 0.058440723 -0.18965578
7.1984396 0.076829121 1.2503982
7.2102561 0.073982507 1.3442403
7.2490053 0.060759369 1.4462459
7.1174784 0.070296064 -0.17690174
6.2772174 0.38744119 -0.41756848
6.4750257 0.30878267 -0.41525179
7.174686 0.040099509 0.71076351
7.176229 0.041147601 0.79959804
7.1692653 0.048960816 1.0671319
7.2254868 0.00077601202 -0.29896018
7.0730343 0.064380743 -0.16813961
7.2230792 0.0022805491 0.35085204
7.1855321 0.024210341 0.71129692
7.1729269 0.039383624 1.2495654
7.1737695 0.04075449 1.3409793
7.4077711 -0.079896919 -0.049598914
5.349936 0.73891419 -0.42516971
7.2578745 -0.030291716 0.070712075
6.4685841 0.28266081 -0.41607505
7.2398872 -0.0092713973 0.80350131
6.7022762 0.1873077 -0.41625953
6.9536223 0.084879398 -0.40961298
7.2097011 -0.017495967 -0.29670608
6.9906716 0.074598379 -0.15059933
7.3463984 -0.068463542 -0.039230671
7.3914304 -0.092062645 0.33759707
7.3547878 -0.075190052 0.43437299
7.2845988 -0.044542756 0.52996182
7.2437801 -0.026031107 0.6225214
7.2228174 -0.014047011 0.8030588
7.3366356 -0.084073775 0.24702081
7.3242073 -0.07714285 0.34263608
7.3222141 -0.069390312 0.71543348
7.3199511 -0.066727884 0.80821717
7.329771 -0.062034551 1.280063
7.2572103 -0.030435976 1.3610367
7.2844267 -0.039838936 1.4625049
5.6774516 0.58479971 -0.43109035
5.7974911 0.53471506 -0.42598641
7.3182697 -0.085026324 0.4362061
7.3289914 -0.084324837 0.71588814
7.3426814 -0.086559042 0.90411967
7.0024142 0.037683729 -0.066926278
6.0709586 0.41213462 -0.41452885
6.2571864 0.33358651 -0.41726428
7.0628614 -0.0048576519 -0.35459778
7.3161368 -0.084914885 1.0898545
7.106791 -0.021878749 -0.27368414
7.3149252 -0.082652442 1.1846211
7.3427868 -0.090774529 1.3805357
7.2016039 -0.057072029 -0.015553646
7.2251692 -0.077916577 0.073366091
7.2809772 -0.098343067 0.2519514
7.2997761 -0.099487439 0.62320971
6.8501019 0.077894203 -0.12169273
7.1429734 -0.052673582 0.17599876
7.1376271 -0.048720218 0.26645166
7.1615281 -0.057335578 0.35461605
7.2349234 -0.087193377 0.44042352
7.2550955 -0.094165005 0.53113461
6.6785035 0.1353997 -0.41468531
7.069756 -0.029441601 -0.26589957
6.8229423 0.079026923 -0.11609436
7.087822 -0.032219466 0.00377534
7.1315889 -0.054419465 0.44575387
7.1406236 -0.056695193 0.53425455
7.1404338 -0.054971043 0.62376165
7.1309867 -0.049268544 0.7123332
7.139843 -0.051456932 0.80139256
7.2145653 -0.081960544 0.89666575
7.2468987 -0.094184227 0.99106914
7.2387924 -0.089009814 1.0823922
7.2801552 -0.10330699 1.2762089
6.9625721 0.0092269862 -0.061372854
7.2966943 -0.10864196 1.3745006
7.065588 -0.033978306 0.0072187227
7.0833139 -0.048939299 0.27152476
6.0590091 0.38423526 -0.41401568
7.1008134 -0.048495233 0.71190226
7.1356893 -0.057115186 1.0701742
6.973979 -0.010775305 -0.24283232
6.7648983 0.082744293 -0.10406113
7.1413579 -0.056244146 1.2525663
7.142149 -0.054912198 1.3441643
7.171349 -0.065795094 1.4438078
7.1204662 -0.07496772 0.44623968
7.1313024 -0.078110263 0.53464639
7.1125293 -0.066625237 0.71250182
6.9153738 -0.00053450902 -0.40746868
6.8466926 0.03319988 -0.21067515
7.1003351 -0.051532093 1.2463225
6.9627299 -0.015029762 -0.062862538
7.0131745 -0.035740361 0.015436127
6.2394714 0.28781456 -0.41712427
5.7761712 0.48532066 -0.42508012
5.5272827 0.5890767 -0.42404085
6.6553516 0.082623094 -0.41372207
6.6757388 0.079396173 -0.086284824
7.0974116 -0.11197509 0.44724065
7.0533175 -0.088813759 0.62492448
6.8307323 -0.0047523468 -0.29710788
6.6624179 0.07377439 -0.16603994
6.9245095 -0.042860758 -0.05771815
7.076117 -0.11537886 0.44828832
7.012043 -0.082958438 0.62514746
6.2222586 0.25866008 -0.4151971
7.0663571 -0.1061613 0.71282959
7.1078711 -0.12348419 0.80270201
7.0338817 -0.10684687 0.4504354
6.0406041 0.33396006 -0.41459057
7.0622387 -0.11515735 0.71299142
7.0738125 -0.11569988 0.97875863
6.608604 0.07768704 -0.15369584
7.0257893 -0.090555921 1.1501871
6.6107259 0.078156568 -0.073304065
6.8766613 -0.043591302 -0.049202457
6.8046737 -0.0087398747 0.049718745
7.0023184 -0.1037342 0.45202222
7.005703 -0.10375275 0.53839874
6.9546366 -0.078556865 0.62551039
7.0215216 -0.10795811 0.7122606
7.0562372 -0.11768426 1.0660967
6.8546848 -0.044319291 -0.045325171
6.7684035 -0.0025747134 0.055741817
6.9373746 -0.084731773 0.54026622
6.2154961 0.23503697 -0.41617227
6.9622035 -0.093265414 0.71109402
6.9761415 -0.096681841 0.88388592
6.9113226 -0.081528157 0.62587297
6.9219174 -0.085000157 0.7103433
6.4101863 0.13536307 -0.41535461
6.6300488 0.032120105 -0.41220284
7.0027757 -0.11359186 1.2375838
6.8123107 -0.046841424 -0.037939209
6.9932122 -0.10754762 1.3245924
6.7207594 -0.0020242662 0.063227437
5.7535458 0.43606269 -0.42419502
6.9145713 -0.097984351 0.4564063
6.9124422 -0.09547244 0.5410248
6.0260773 0.30722195 -0.41336957
6.9358668 -0.095918998 1.1397929
6.9676838 -0.10933934 1.2322675
6.9707041 -0.10919057 1.3210809
6.766912 -0.042237982 0.30096892
6.8587923 -0.080308259 0.62624031
6.8513088 -0.075268067 0.70914274
6.8868175 -0.087712511 0.96282488
6.567719 0.046271782 -0.067121699
6.7608972 -0.045212157 -0.028697448
6.7121072 -0.02029928 0.063552298
6.9068093 -0.089553252 1.3970569
5.3046465 0.63686067 -0.42331421
6.8710036 -0.098752834 0.54221588
6.5673242 0.036389541 -0.067810066
6.8081927 -0.079393551 0.62659502
6.820528 -0.083917342 0.70893192
6.7166777 -0.046477262 -0.02095121
6.8533511 -0.087864719 1.3870245
6.6484904 -0.017331012 0.31245831
6.6727614 -0.027807163 0.38978383
6.5570521 0.017754426 -0.22804451
6.6675596 -0.030895127 0.069868647
6.6155391 -0.012180289 0.31560153
6.7769923 -0.088916704 0.46323922
6.7564607 -0.075959496 0.62691957
6.1925664 0.18280767 -0.41594708
6.7633781 -0.07793653 0.70800614
6.7971272 -0.090168551 0.95607638
6.4783049 0.046098754 -0.20609351
6.4134893 0.079622999 -0.1102987
6.6754646 -0.055765063 0.14868148
6.6727114 -0.052990146 0.22944948
6.5844293 -0.007732396 0.31855455
6.8317046 -0.11745171 1.0440663
6.8278341 -0.11109487 1.2980915
6.5620198 -0.0080805924 0.32058075
6.6163573 -0.033917788 0.39362195
6.7246046 -0.086666435 0.46581858
6.7252784 -0.082788557 0.70760328
6.5450354 -0.012044426 -0.39307907
6.3703499 0.080204293 -0.10076818
6.5653467 -0.016575895 -0.071627297
6.6064038 -0.034432862 0.079121009
6.6275907 -0.05413162 0.1551239
5.7328529 0.38531458 -0.42495939
5.8516507 0.34290969 0.56930983
6.5123439 -0.0041446891 -0.30024695
6.7243638 -0.088928245 0.95044655
6.6053166 -0.045659013 -0.0012772197
6.6057277 -0.05350358 0.15805368
6.6081147 -0.053348627 0.23665088
6.5200763 -0.0072878897 0.324404
5.861011 0.33038455 0.56908894
6.3694363 0.056136902 -0.41330624
6.7252927 -0.10165097 0.87014067
6.7059479 -0.089094117 1.0299519
6.6937385 -0.081531934 1.1098762
6.5135779 -0.010679282 -0.060945079
6.6958275 -0.081170984 1.1916716
6.5646667 -0.033986043 0.085578501
6.710391 -0.085611492 1.3605673
6.5606155 -0.038107626 0.39742255
6.6576433 -0.086340353 0.46908286
6.1737032 0.14512341 -0.41529116
6.7221293 -0.1122851 0.87044847
6.5089941 -0.019704754 -0.060788881
6.5614491 -0.04528819 0.0064341654
6.5726447 -0.057362486 0.16223635
5.9056773 0.28761864 0.3282204
6.1722097 0.13807562 -0.4158684
6.6579995 -0.091757268 0.70690161
6.366734 0.038310219 -0.41496381
6.0143595 0.24134453 0.87788981
6.658268 -0.086409539 1.0251466
6.6603131 -0.0860603 1.1062757
6.6765423 -0.092941217 1.1900228
6.4932137 -0.017733639 0.097544409
5.28544 0.58661062 -0.42542008
5.9108195 0.27536562 0.26644117
6.2088165 0.1241101 0.42473963
6.9455476 -0.25606081 0.45382315
6.6727858 -0.10939529 0.78717506
6.2642336 0.085591994 -0.15041482
6.0212455 0.22992206 0.94223821
6.2748799 0.081304342 -0.079804309
6.7032361 -0.11951314 1.1139477
6.692945 -0.11281888 1.1940702
5.9012594 0.27822062 0.14514992
6.6967411 -0.11335153 1.2772177
5.9076543 0.27258086 0.50819498
6.6079226 -0.08849331 0.70613831
6.655694 -0.11197666 0.78667903
6.4216447 -0.0083861547 -0.276948
6.2447834 0.085912436 -0.14572497
6.3788247 0.018095203 -0.032115396
6.668942 -0.11194985 1.1906582
6.6762972 -0.11434961 1.2740433
6.6591439 -0.10406429 1.3532761
5.4726009 0.47656676 -0.42206016
6.3184738 0.053667981 0.76932555
6.205071 0.097643107 -0.13497059
6.2222571 0.089788899 -0.067554772
5.8869901 0.26808536 0.085190296
6.6599202 -0.11525618 1.3546693
6.3795476 -0.008364181 -0.34547156
5.9291587 0.25017044 0.87092912
6.0591149 0.1651361 -0.092827372
5.7079172 0.3370865 -0.4241308
6.3533869 -0.0047240122 -0.33759093
5.9118543 0.24956737 0.80922389
5.8850713 0.2647883 0.86676246
5.8022881 0.29550979 0.51345706
5.8136244 0.29432446 0.80176389
5.8771095 0.24500065 -0.10458455
5.8900809 0.24015133 0.019014442
6.694273 -0.16742454 1.366776
6.2710958 0.019284151 -0.388437
5.8948379 0.2453645 0.99017864
6.6699953 -0.16898346 1.1959538
6.6789241 -0.17237155 1.2803513
6.1098838 0.09649045 -0.40188423
5.9579525 0.18119638 -0.26935974
5.9363008 0.18255436 -0.33138299
5.680347 0.33073971 0.57406843
5.8952417 0.19759668 -0.31557003
6.6954584 -0.21597296 1.2874731
6.7125816 -0.22390661 1.3765454
5.9210958 0.18907292 1.0600911
6.6701894 -0.22508322 1.2844293
6.6702118 -0.22369118 1.3689228
5.8610086 0.1825363 -0.30693957
5.9216561 0.17187746 1.1247772
5.8124299 0.23427676 1.1619887
5.86689 0.19337258 1.052285
5.8212724 0.19182937 -0.096906587
5.7661948 0.21046118 -0.40471259
5.8210936 0.18380442 -0.097906366
5.8218188 0.18544616 0.028022105
5.7577825 0.2186479 0.28324136
5.8167272 0.1812804 0.090947963
5.7043695 0.24107884 0.29137444
5.4259467 0.3923662 -0.42065614
5.8193216 0.1870973 1.1071162
5.4259124 0.38524404 -0.42236257
5.785954 0.17755732 -0.1537748
5.6810355 0.24191722 0.004928695
5.7400274 0.20980836 0.16748495
5.6811323 0.24562761 0.23750533
5.6793694 0.24439512 0.57419115
5.8376846 0.13521533 -0.37630045
5.8335228 0.13882457 -0.30552748
5.7788229 0.1726767 -0.21685593
5.6939325 0.22452889 -0.12158469
5.6609831 0.24522763 -0.049136665
5.6574092 0.2520383 0.2414712
5.6774721 0.23729287 0.5742442
5.7763886 0.16339438 -0.35005993
5.6625028 0.23519175 -0.11138444
5.649179 0.24418962 -0.046292868
5.6612997 0.23879008 0.06760522
5.6774201 0.23004627 0.1219985
5.6704898 0.23513605 0.18131237
5.7135172 0.19453344 -0.25757447
5.6337523 0.24395868 -0.16240005
5.6411591 0.24043547 -0.10475779
5.6096339 0.26049942 -0.034116931
5.6329346 0.24825116 0.074588843
5.6321449 0.24965316 0.13243704
5.6384835 0.24673283 0.18766566
5.6151948 0.25590891 0.35843521
5.6473522 0.23398554 0.68519717
5.5481539 0.28222606 -0.073096044
5.5222569 0.28516304 -0.42504808
5.6254148 0.24313958 0.90361369
5.7284179 0.18407026 1.1531675
5.5235467 0.28233182 0.42182302
5.5269499 0.26970398 -0.24500023
5.4714923 0.27888829 -0.40583229
5.4763875 0.27672228 -0.34622294
5.5434809 0.23846097 -0.078503683
5.5112004 0.26082584 0.046269149
5.4694028 0.28599644 0.42657191
5.2748985 0.38303396 -0.41528851
5.5357246 0.18744379 -0.2030662
5.5390573 0.18613192 -0.14449981
5.9714217 -0.078768454 1.2284287
5.4581103 0.2331979 -0.05648499
5.3706269 0.27974355 -0.36502269
5.4573932 0.22369584 -0.23095448
5.3834772 0.27620599 -0.029725637
5.4014492 0.24715008 -0.15031062
5.5656862 0.15079901 0.85008949
5.3255787 0.28099361 -0.34680939
5.5804353 0.11891256 0.52154648
5.9517388 -0.12548226 1.2311445
5.902401 -0.10058662 1.2194945
5.5328732 0.138596 0.7398622
5.9070916 -0.11441895 1.2221167
5.3224397 0.26312047 -0.29150081
5.6297159 0.06023391 0.51847839
5.2771821 0.2874327 -0.3260735
5.8616004 -0.10099174 1.2126493
5.4370255 0.16307504 0.47662792
5.5782552 0.06138733 1.0848137
5.1742659 0.32699159 -0.27545363
5.8099904 -0.11269974 1.2055601
5.1460176 0.34044701 -0.26089892
5.2627668 0.25508535 -0.27157733
5.2765374 0.24573341 -0.22264464
5.2134824 0.29590344 0.068081103
5.1681986 0.31785873 -0.22131951
5.6837687 -0.049479201 0.57364017
7.1375728 -1.1031163 1.5614778
5.1723285 0.30619255 -0.33561555
5.2106776 0.2889412 0.44806418
5.7702184 -0.12192123 0.63364697
5.6284213 -0.016324706 0.6910072
5.1233525 0.33713496 -0.25304577
5.738502 -0.10761435 0.63365626
5.5525584 0.036136515 1.026742
5.8482108 -0.18182895 1.1540817
5.8255854 -0.16415034 1.2151704
5.5459919 0.024790524 0.46567142
5.1709118 0.29978889 0.07872887
5.5287523 0.043915011 0.91009688
5.1656456 0.30185032 0.4522486
5.1173091 0.32910284 -0.20003153
5.7105923 -0.10726502 0.51219964
5.2019415 0.2662864 -0.13908389
5.5233498 0.03682312 0.74340695
5.651619 -0.055399723 1.0492494
5.2938037 0.1905169 -0.1293032
5.5881438 -0.019919012 0.74766475
5.7295465 -0.1224407 1.066419
5.6984477 -0.11770295 0.45187986
5.7380934 -0.14707759 0.51033056
5.2898626 0.18532354 -0.12923113
5.7249885 -0.13369365 0.75642574
5.6780348 -0.094633713 0.99569219
7.1627584 -1.2198637 1.3673904
5.0993576 0.32077238 -0.35639369
5.1762562 0.27300221 0.45007187
5.7213244 -0.14270157 0.57240564
5.7076302 -0.13052723 0.69485801
5.7570124 -0.16746157 0.75875002
5.2858677 0.18258092 -0.020463023
5.5927219 -0.039398275 0.92246932
5.708282 -0.12679337 1.0019977
5.1349201 0.28882632 -0.21679032
5.706944 -0.14174666 0.51172972
5.226181 0.21860182 -0.21209553
5.6924515 -0.12473315 0.93816715
5.6975341 -0.1277862 1.0009454
5.1269746 0.28751782 -0.21429916
5.6816077 -0.1283749 0.81580055
5.6636868 -0.12526844 0.69413024
5.6755748 -0.13288458 0.81573427
5.6672668 -0.12559673 0.87534499
7.1327076 -1.2585784 1.582221
5.1902847 0.23258297 0.44706044
5.0486102 0.33467031 -0.22526954
5.6424003 -0.12049466 0.57433075
5.2675395 0.16708195 0.086574726
7.1379447 -1.280444 1.5861568
5.7739506 -0.23029788 0.76171231
5.7780018 -0.22826953 1.1497073
5.6895275 -0.17699413 0.51178807
5.1952977 0.20992596 0.10826307
5.7760253 -0.23709804 1.1505431
7.139329 -1.3134059 1.5910497
5.0220089 0.3360582 -0.21489002
5.6176033 -0.12926339 0.57485694
5.624393 -0.13310248 0.69378334
7.1228733 -1.3183755 1.5890932
5.1743765 0.20940544 0.44717258
5.7018843 -0.2159038 0.51052755
5.2169037 0.16906823 -0.0057059657
7.140317 -1.3808616 1.6008484
5.0515451 0.28674081 -0.18791908
5.6597357 -0.20123817 0.51252711
5.6823158 -0.21728818 0.6966157
5.7257915 -0.25198337 0.76102281
5.6192479 -0.16340803 0.87462872
5.1310453 0.22583725 0.12409569
5.2733784 0.11158064 0.28371331
7.1110735 -1.3734156 1.5950822
5.6236629 -0.18220545 0.51436418
5.55761 -0.12706156 0.57622087
5.6538639 -0.20468897 0.69592148
5.7327371 -0.2687166 0.76189494
5.1112847 0.23303862 0.032291036
5.7108994 -0.24580292 1.1424041
5.2834201 0.087086819 0.3315247
5.190711 0.16465212 0.39605978
5.6535311 -0.21451646 0.69615525
5.7183504 -0.26732004 0.76138586
5.0856552 0.24701037 0.041209381
4.976397 0.32879925 -0.20007026
5.5625501 -0.14950307 0.51748174
5.5925422 -0.17217213 0.69429541
5.1104093 0.21726955 0.40705284
7.160675 -1.4946396 0.7477808
5.6626782 -0.24053109 0.75858265
7.0662146 -1.4383372 0.3262063
5.5208569 -0.13371035 0.57699835
5.0097399 0.290245 0.067945719
5.5692286 -0.17069212 0.87174934
5.6722713 -0.26448503 1.1394099
4.9177837 0.350081 -0.32265025
7.075315 -1.4800792 0.32418311
5.0249062 0.26053113 -0.1859356
7.1484294 -1.5370265 0.74864113
5.6218691 -0.23622149 0.75713116
7.1538186 -1.5388899 0.9650839
5.0747752 0.21094061 -0.1643372
7.1600332 -1.5623204 0.9666689
5.5261264 -0.16300443 0.86832237
5.5355024 -0.1672768 1.1686816
5.4751244 -0.13188854 0.5780071
7.1735034 -1.5937954 0.75036001
5.0221176 0.25271598 0.10465648
7.0837836 -1.5375851 0.32160413
4.9716401 0.28977364 0.077043928
7.1674662 -1.6007146 1.0785671
5.6035585 -0.24403405 1.1907357
4.9441938 0.31027249 0.42870197
7.0693383 -1.5450734 0.32214594
5.4525294 -0.12997591 0.69135964
5.1756239 0.10232816 -0.061210703
7.1635308 -1.6192646 0.96996129
7.147893 -1.6015791 1.2979453
7.0704756 -1.5619582 0.32145572
4.9434519 0.29778534 -0.14771982
5.5672879 -0.23827145 0.7555064
5.4884033 -0.16557755 1.0416156
5.5993595 -0.26182017 1.1289426
4.926064 0.3137123 0.43059853
5.419663 -0.12118391 0.46804219
7.1505947 -1.6444055 0.75127405
7.1599503 -1.6486309 1.0814406
7.1503396 -1.6361083 1.4132329
5.4130025 -0.1239448 0.5793891
7.1578941 -1.6679423 0.97236931
4.9989114 0.23787703 0.10708313
7.1510878 -1.6578819 1.3040018
7.1425347 -1.6745751 0.75189537
4.9319925 0.28019193 -0.1986004
7.1361866 -1.6876611 0.75212592
5.5264378 -0.24217184 0.75439274
5.1187553 0.10683054 -0.045673389
7.1403356 -1.7025386 1.3074937
7.1473875 -1.7075508 1.421329
5.4052734 -0.13772847 1.1439593
7.1387038 -1.7266344 0.75310516
7.1540337 -1.7379215 0.97606361
5.4164834 -0.16089782 0.86091155
5.4275365 -0.16819368 1.0928618
5.3706927 -0.13208091 0.58021998
4.867384 0.31981012 0.4363319
7.1541409 -1.7779113 0.75455922
5.0735955 0.12485465 -0.030304059
7.154613 -1.7757306 0.97819978
7.157124 -1.7767268 1.0903693
7.1431041 -1.7612313 1.3138349
7.1339865 -1.7515525 1.4249973
7.1388912 -1.7547151 1.540053
7.1387329 -1.7532167 1.6557897
7.11341 -1.7647624 0.31134722
5.0016026 0.18388632 0.00081221346
4.9882298 0.19742373 0.10195816
7.0614934 -1.7356386 0.31532168
7.148025 -1.8110334 0.75527871
5.4568672 -0.23835489 0.75209588
7.1586828 -1.8183423 0.98077977
7.0738659 -1.7662594 0.31344524
4.9208674 0.24469648 0.034503091
4.9821863 0.18809988 0.10150567
7.1382599 -1.8136668 1.4329661
7.1487265 -1.8221102 1.5505794
7.1212091 -1.7951182 1.6595299
5.0765624 0.095129348 0.35477743
5.3226995 -0.13384704 0.5811916
4.9772644 0.18566604 0.10209342
7.154078 -1.8482714 1.3239962
7.1538134 -1.8453969 1.5544569
5.3192372 -0.12435227 1.1287532
7.1541777 -1.8746065 0.75690407
5.3860321 -0.20074707 0.80522209
5.2850847 -0.10227843 1.0646658
7.144052 -1.8810394 1.0970463
7.1508708 -1.8836441 1.44291
7.1496754 -1.8812029 1.5588366
7.1094704 -1.8417351 1.664945
5.3320098 -0.17090292 0.52587676
5.424572 -0.2543498 0.9856441
5.4055676 -0.23555303 1.0402313
5.4017148 -0.23055424 1.157645
4.8933005 0.23326963 -0.1997875
7.0484319 -1.8365349 0.31201372
5.3168125 -0.16653629 0.52654028
5.26651 -0.11747324 0.58245021
5.2743244 -0.12440838 0.63570964
7.1321182 -1.9121889 0.75751382
5.4343405 -0.27393612 1.0482379
7.1514978 -1.9219016 1.5647137
5.0273414 0.095284604 0.35993981
7.0500154 -1.8750601 0.31036738
7.1508651 -1.9875866 0.7595979
7.1467414 -1.9747276 1.5714438
5.3931599 -0.26187512 1.1612511
5.3618002 -0.24079926 1.1532732
7.0455241 -1.9280459 0.30843106
5.2142253 -0.11090805 0.58353406
7.1366153 -2.0134492 0.76003027
4.8590341 0.2357024 0.092188023
5.3776288 -0.2685115 0.98255748
5.2281752 -0.13583793 0.47786209
5.3252687 -0.23213424 0.52461743
5.3115444 -0.21667857 0.69153559
4.9251723 0.16230123 0.108504
5.3404479 -0.24368134 0.86201942
4.9760208 0.11190007 0.13576983
7.1311493 -2.0212479 1.5759265
4.9727764 0.11711357 0.32207394
4.8662529 0.21083079 -0.24825084
5.2870622 -0.20212066 0.58133471
4.9440856 0.1349805 -0.044675507
4.7932525 0.28740355 0.075519823
4.9763346 0.1050504 0.18157767
4.9766912 0.097662725 0.36535317
4.8814492 0.18771806 -0.21051967
5.2434897 -0.16976996 0.52910614
4.9542699 0.1159142 -0.052079506
5.2475262 -0.1704769 0.85074073
5.26684 -0.18820477 1.0185317
4.9716816 0.10176963 0.27483517
7.1269097 -2.0587609 1.5806705
4.8762183 0.18654545 -0.15878133
7.1470428 -2.1050889 0.99652016
7.1490827 -2.1059394 1.1138725
7.1264033 -2.0805223 1.3459811
7.1379271 -2.0909557 1.4669728
7.1170063 -2.0685506 1.5807725
4.8197284 0.23638469 -0.27290288
4.866725 0.18863182 -0.25615996
4.8818684 0.17413561 -0.16439521
4.8726883 0.18406351 -0.10948118
7.1544428 -2.1313806 0.9983772
7.1573133 -2.1306367 1.3543577
7.1465406 -2.1184444 1.4713768
5.19627 -0.14613989 0.7931971
4.9146819 0.13568895 0.10543
5.2059498 -0.1555192 0.84701872
5.2676711 -0.21588485 1.1354539
7.156424 -2.1739237 1.1193894
4.916779 0.12844963 0.32992482
5.2520466 -0.20926437 1.1321166
4.9184279 0.11509129 -0.043088324
7.1519694 -2.1921995 1.0017751
4.9229751 0.11273706 0.1918097
4.9177084 0.11868095 0.23933113
7.1574783 -2.1930821 1.4819678
4.9142957 0.12268427 0.28519168
5.2490559 -0.21674408 1.076031
4.8813634 0.15738335 0.3372598
4.8478465 0.18514237 0.38644832
4.7705598 0.25999576 -0.19720969
5.0149035 0.012766907 0.58843774
4.8123741 0.21930246 0.098993436
7.1631818 -2.2256835 1.0042313
4.8221345 0.20951033 0.13873069
7.1815815 -2.2436733 1.1261693
4.8432388 0.18783189 0.17402801
4.8315701 0.20048507 0.22136901
4.8082695 0.22530687 0.27123213
5.3161497 -0.29663846 1.0960759
4.7539716 0.2763333 0.40436316
4.7338305 0.29176855 -0.1731205
4.7390709 0.28668758 -0.1304476
5.0124717 0.0071631181 0.63539761
7.1622977 -2.2455752 1.1251147
4.745306 0.28429401 0.28923893
4.7278428 0.29256216 -0.079491295
5.0150161 -0.003217615 0.68230933
4.7307553 0.29275274 0.25322369
5.1209598 -0.11255436 0.94110835
7.1334319 -2.2324173 1.4842637
5.2246823 -0.23407102 0.74491912
7.1499557 -2.276751 1.0065936
7.1667714 -2.2934241 1.1289876
7.1670675 -2.2901728 1.4953123
4.8625546 0.13963279 0.46575186
5.2681689 -0.28796917 1.0887229
4.7198825 0.2850664 0.40855122
4.8629403 0.13181978 0.46524936
4.9744768 0.013101178 0.58918214
4.976583 0.0036471183 0.63550341
7.1476097 -2.3389637 1.0101203
7.1506739 -2.3411231 1.1315989
7.1494384 -2.3363025 1.4992529
4.9744382 -0.0028010963 0.68174487
7.1545401 -2.3705604 1.0122858
7.1561403 -2.3676848 1.5040035
5.0706892 -0.11337279 0.93649077
5.1262941 -0.17306638 1.0541573
5.0966911 -0.1630203 0.78963625
7.1383057 -2.415966 1.5082721
5.013124 -0.077394582 0.92716318
4.720129 0.23702219 0.40388077
4.9227777 0.011961139 0.59008801
5.0684538 -0.14971097 0.73683864
4.6734662 0.28223863 0.44990855
4.8466325 0.087386869 0.46354753
4.9186559 0.0078185108 0.63558608
5.0217614 -0.10696473 0.78296626
5.0185409 -0.10069653 1.0810996
4.918294 0.00042627589 0.68089962
5.090601 -0.19416021 0.73933339
5.0101557 -0.10053069 1.0290796
5.0206232 -0.11190754 1.0832522
4.9512157 -0.045426257 0.72908634
4.9600806 -0.053033702 1.0158911
4.8244944 0.081202969 0.46455696
4.9297261 -0.035789859 0.96205854
4.8058615 0.094057195 0.46654707
4.7197957 0.18858431 -0.1579681
4.8759322 0.013120862 0.50196326
4.7209339 0.18765765 -0.11128208
4.8748546 0.015118315 0.59094119
4.7132626 0.18872197 -0.20377888
4.8736587 0.00047005023 0.63570678
4.872088 0.0026776069 0.68021381
4.6197143 0.26814795 0.41635084
4.6494136 0.23272341 0.44771746
4.7966824 0.040283844 0.50691283
4.8272657 0.003778483 0.59159124
4.7677503 0.067235567 0.46714148
4.8210349 0.0034100623 0.63575256
4.8194933 0.0056241779 0.67942387
4.7047944 0.13670665 0.47551951
4.6230545 0.22909006 0.44939461
4.5719614 0.28540462 0.42241615
4.7702761 0.039382219 0.50806081
4.6013012 0.24220121 0.45212102
4.8890595 -0.11574598 0.73026717
4.7738118 0.0099419653 0.67869508
4.7764621 -0.0015675428 0.63582158
4.8891025 -0.16246007 1.0741607
4.7230506 0.040293194 0.51018137
4.6060643 0.18008557 -0.12698601
4.5932674 0.18839571 -0.16595939
4.5982499 0.18240438 -0.078591034
4.8989716 -0.21522388 0.83338618
4.7259116 0.0024504906 0.63582301
4.7179565 0.0048255082 0.67805606
7.1263175 -3.2373476 1.2003076
7.1257071 -3.2675385 1.2027061
4.8185639 -0.14723147 1.0624553
4.675427 0.034416791 0.51190352
7.1229444 -3.294091 1.0666792
7.1352053 -3.3099906 1.2066563
4.8112025 -0.15898114 0.77706343
7.1482143 -3.384295 1.2133808
7.114759 -3.3691292 1.0709963
7.1128106 -3.3656909 1.209934
7.4394341 -3.8452721 2.0469847
7.0692949 -3.3670018 0.2397489
7.1224294 -3.4372637 1.075549
7.1377568 -3.4580302 1.218794
4.7571416 -0.13357162 0.54545021
7.1289043 -3.4791527 1.078424
4.7867947 -0.17405301 0.82387722
4.7243829 -0.085554123 0.90296596
7.0038886 -3.3350778 0.24402876
4.7688565 -0.15922967 0.63670719
7.1176009 -3.4918299 1.2204546
4.7975898 -0.20992322 0.63698202
5.8498716 -1.7092197 1.4689323
7.0016317 -3.3926804 0.24111976
5.8498101 -1.7330942 0.91749245
5.856936 -1.7429183 1.0096799
5.8504052 -1.73226 1.2850312
5.8547564 -1.7380824 1.3797097
5.8565893 -1.7402786 1.4753336
4.7678766 -0.18884952 0.49664849
5.7872691 -1.6637698 0.46780163
5.8581476 -1.7638769 1.0114605
5.8583217 -1.7637165 1.1035775
5.8616343 -1.7676687 1.2910551
5.8614101 -1.7669233 1.3850409
4.7131772 -0.10726945 1.0422653
4.661253 -0.043677203 0.59336299
4.775878 -0.21037574 0.63697499
4.7721486 -0.20474148 0.68387723
5.8234367 -1.7343496 0.91651016
4.7533894 -0.17662352 0.86898088
7.1238956 -3.6570151 1.234315
7.3111734 -3.9278829 2.0461237
4.7631564 -0.21179609 0.63697499
7.1080585 -3.6627626 1.6742504
4.5825214 0.044495236 0.55591434
4.7256856 -0.16665675 0.86613047
4.5227294 0.12254746 -0.12583147
4.5191336 0.12810075 -0.077499323
7.1178403 -3.7459168 1.094713
4.5179615 0.1215344 -0.17100307
4.5280638 0.10650528 -0.13345209
4.6098566 -0.013901572 0.51199335
4.6994138 -0.14774166 0.68150163
4.692349 -0.14791314 0.7262699
4.6220484 -0.05111666 0.63607424
4.4637027 0.1790617 -0.088493802
7.1166048 -3.8782625 1.1030309
4.4609284 0.17524253 -0.046053637
7.1061835 -3.8993955 0.35900283
7.1267858 -3.9287527 1.1066309
4.6471319 -0.11832879 0.50499809
7.1375217 -3.9767025 0.35558298
4.3679662 0.31277472 0.064419188
7.0222049 -3.8348463 0.2168082
7.1122503 -3.9731312 0.95730114
7.12672 -3.9952509 1.110852
7.1188526 -3.9825385 1.2609798
7.4174657 -4.4457111 2.1531126
7.1075478 -3.9997563 0.80778974
7.1227021 -4.0218325 1.4172099
7.1072536 -4.0331016 0.80859417
7.1138721 -4.0431485 0.96041405
7.1068082 -4.0315862 1.1123929
7.1213384 -4.0541201 1.2670758
7.1307049 -4.0684958 1.4225392
7.4239721 -4.5296249 2.1693132
7.0034547 -3.9058571 0.21362728
7.0706053 -4.012239 0.35594907
4.6202569 -0.11647002 0.63638037
7.1143517 -4.0806317 0.80984348
7.1166553 -4.0839076 0.9622761
7.1053381 -4.0655332 1.1145006
7.1271825 -4.0998607 1.2711954
4.6433449 -0.16331221 0.86046398
7.1162429 -4.1548305 0.96538311
7.114974 -4.152092 1.2749467
7.3588629 -4.5427747 2.1642969
7.1082144 -4.1788845 1.121855
7.1108088 -4.1827626 1.2773082
7.1135697 -4.1869087 1.4337254
4.4741974 0.079378679 0.52200353
7.1006203 -4.2067103 0.9672634
7.1112895 -4.2238193 1.1248505
7.1086187 -4.2191577 1.2802541
7.1237645 -4.2435675 1.4402564
7.3607163 -4.6288905 2.1804872
4.5094843 0.012868859 0.59597695
7.1076131 -4.2539291 0.9695254
7.4958959 -4.8900385 1.8847294
7.117631 -4.3063536 1.1303866
4.4952679 0.017463271 0.51784509
4.5200477 -0.023714602 0.5550397
4.5310049 -0.041886751 0.59489554
4.5137506 -0.02264661 0.51498121
7.0943999 -4.3435307 0.97314262
7.1067924 -4.3640637 1.1336881
7.1111569 -4.3711548 1.2931854
5.8808084 -2.3107288 1.3704767
5.8717742 -2.2953148 1.5790162
7.0199256 -4.2582722 0.1935887
5.8509431 -2.2871587 0.44470641
4.3195686 0.29420415 0.10497576
5.8644915 -2.3095067 0.85176367
5.864316 -2.3090854 0.95467621
5.8609133 -2.303225 1.0565354
5.8655353 -2.3106389 1.3691522
5.8672309 -2.3133695 1.4749192
7.0151324 -4.2889261 0.19203615
5.8241816 -2.2670636 0.54655802
5.8195162 -2.2590382 0.64772779
5.8410645 -2.2955065 0.74916935
5.8563223 -2.3212965 0.85207725
5.8601861 -2.3277447 0.9557246
5.851727 -2.3132794 1.0569327
5.8441033 -2.3002329 1.1580224
5.8652964 -2.3359787 1.3728262
7.039432 -4.3649206 0.18696214
7.1053429 -4.4773297 0.33866945
4.5395098 -0.10707409 0.50938821
6.9918976 -4.362555 0.18867151
7.1147246 -4.5745058 1.3105856
7.4080882 -5.0819764 1.9051689
7.4129157 -5.0902233 2.0881836
7.3840885 -5.0402198 2.2600524
7.1057305 -4.5981064 1.1487614
7.1137314 -4.6119008 1.4782287
6.9979091 -4.4511456 0.18346725
7.1054893 -4.6396022 1.1514417
7.0266604 -4.5403976 0.17747454
4.5206437 -0.11541518 0.63620132
7.1031513 -4.6753402 1.1536742
7.1187072 -4.7027669 1.4881196
4.3761239 0.13973528 0.38524112
4.5108891 -0.098145284 1.0174241
7.097074 -4.7913847 0.99309278
7.0948577 -4.7874527 1.1606597
7.1108589 -4.8164186 1.499689
7.0511622 -4.7517095 0.32978731
7.1016192 -4.8436484 0.99553651
7.0955186 -4.8326683 1.1636289
7.110364 -4.8597975 1.5042652
7.0548067 -4.8021402 0.32784975
7.0966544 -4.8789868 0.82895726
7.0911608 -4.8691907 1.1658529
7.1086941 -4.9014845 1.5085983
7.0999398 -4.9302821 1.1701567
7.1248083 -4.9763684 1.5175108
4.3264241 0.17539942 0.39407003
4.3040853 0.20822141 0.40037808
7.0908313 -5.0023522 1.3460332
7.3592849 -5.5043368 2.1529574
4.4269042 -0.040630456 0.47671968
7.087028 -5.0413885 1.1769614
7.0991001 -5.0645781 1.5254314
7.3467999 -5.5310383 2.1563535
4.4103947 -0.01897444 0.5184983
7.0895357 -5.0874691 1.1800702
7.1038938 -5.1149077 1.3563375
4.4887128 -0.16764008 0.85157973
7.3467412 -5.5755272 2.1639185
4.27493 0.23742834 0.40668061
4.3763013 0.035238117 0.56016022
4.4586973 -0.1218692 0.63606882
7.0950847 -5.1454115 1.1840671
7.1030846 -5.1612797 1.5360079
7.3421688 -5.6178885 2.1707218
4.2830825 0.2048865 0.0047255629
4.2516732 0.26495451 0.10784195
4.4734998 -0.16217168 0.85012424
7.3372269 -5.7090445 2.1858389
7.29427 -5.6697397 -0.084546894
7.017817 -5.1324797 0.14357163
4.2578635 0.23663819 0.097045839
7.0837178 -5.2627082 1.0138572
7.0886984 -5.2732253 1.3693192
7.3142614 -5.7579865 -0.092359558
7.0184879 -5.1792259 0.1408112
7.0823512 -5.3069677 1.194241
7.2763982 -5.6895308 2.1770744
7.2676182 -5.6728139 2.3686326
4.2270379 0.27864835 0.44770947
7.0594654 -5.3122897 0.30859986
4.4497881 -0.16169715 0.67842966
7.0844674 -5.364068 1.1980776
7.1034389 -5.4020181 1.3811567
5.2545447 -1.7523112 1.410722
7.0824761 -5.4081159 0.30453822
4.4210644 -0.11647298 0.63593471
7.0919366 -5.4295554 1.2026566
5.2765393 -1.8200214 1.4260002
5.2455044 -1.7809225 1.415367
5.2371302 -1.7849492 0.81278193
5.2250643 -1.762301 1.3220662
5.2259812 -1.7644416 1.4102554
7.3847537 -6.1727748 -0.12828332
5.2154536 -1.7666951 0.81143951
5.2397504 -1.8169979 1.071328
5.1756687 -1.7055284 0.4795793
7.0641956 -5.5724211 1.2111472
7.0876403 -5.6210895 1.399511
7.0881615 -5.6228437 1.5849088
7.4197059 -6.3046455 2.5060537
7.4047947 -6.3226185 -0.14110883
5.1767459 -1.7316741 0.47855309
7.0772138 -5.6525974 1.2169037
7.0900083 -5.6797109 1.4047329
4.4141393 -0.16091764 0.84668082
7.0807495 -5.71734 1.2213178
7.0935073 -5.8524265 1.4199938
7.0669808 -5.8474517 1.0398332
7.079421 -5.8747988 1.2317344
7.0764117 -5.8693085 1.4207278
5.8605261 -3.2872069 1.6401857
7.388988 -6.5838776 -0.16171575
7.0519309 -5.8648238 0.28741968
5.8526988 -3.3021402 1.0194163
5.8572836 -3.3125703 1.1434826
5.8513818 -3.3005507 1.2656372
5.8057003 -3.2353766 0.53017026
5.8209677 -3.2689354 0.65142691
5.826633 -3.2817864 0.77288383
5.8269029 -3.2830038 0.89449579
4.1716533 0.28049344 0.45112488
4.3760395 -0.16363314 0.46878171
4.3543873 -0.11750066 0.63569885
4.3760657 -0.16573639 0.84516239
4.2219968 0.15300223 0.073906966
4.3251753 -0.088298388 0.43686965
7.2633872 -6.6173592 -0.16006353
4.3118482 -0.059644502 0.59633982
7.079525 -6.2184463 1.4515656
7.1563983 -6.3957853 2.4991095
7.0491405 -6.1994748 0.078984663
7.0146575 -6.1234946 0.27782947
7.0669732 -6.2469068 1.2561507
7.0701809 -6.255352 1.4544263
7.3862038 -7.0215383 0.020813964
7.0326371 -6.2248435 0.27355382
4.3461685 -0.16192327 0.75997019
4.1379113 0.2827943 0.45320308
4.3037338 -0.10110277 0.51643032
7.3281841 -7.1632934 -0.20729397
7.3728151 -7.2690148 0.0060009481
5.2430248 -2.3078668 0.83663929
7.3798232 -7.3470311 -0.22421095
7.3687639 -7.3228312 0.0027897723
5.2542572 -2.3617139 0.83935207
5.2570648 -2.3690813 0.93748927
5.8292413 -3.7152023 1.1778436
5.8473635 -3.7588601 1.3157234
4.1239953 0.28762227 0.45451775
7.356699 -7.3626299 0.00061613967
5.2127485 -2.2909501 0.55062073
5.825429 -3.7445216 0.91546357
5.8249297 -3.7444143 1.0481206
5.8342786 -3.7687213 1.3161553
4.2919097 -0.12529112 0.63545215
5.8029394 -3.7357111 0.78356522
5.8146982 -3.7660253 1.0492504
4.3105631 -0.17123343 0.80083388
4.3117704 -0.1744684 0.84282303
4.1142082 0.29211649 0.45557255
4.2664118 -0.087644085 0.43939242
7.2740111 -7.4580669 -0.23016874
7.249763 -7.4673605 -0.0035095364
7.2587962 -7.5066996 1.8005548
4.2679024 -0.12998617 0.47508711
4.2674351 -0.129217 0.5155009
4.0972238 0.28864515 0.072059236
4.2577419 -0.11980694 0.63527042
4.2780895 -0.17127925 0.67631632
4.2695479 -0.16428556 0.79856986
4.2079606 -0.016893689 0.44913059
7.2880788 -7.8983369 2.8096156
4.1959133 0.0018716698 0.45157406
4.0764251 0.29833534 0.45814928
7.3557491 -8.2087164 -0.05192541
7.2230716 -7.8963418 2.8038633
7.2111444 -7.9490619 2.813499
6.9901738 -7.4146733 0.22603549
4.2427001 -0.16358155 0.67564625
7.137536 -7.8312869 2.541738
6.9921103 -7.4950933 0.22270808
4.0676928 0.28019747 0.45619911
4.1151838 0.15847863 -0.02360623
4.2137146 -0.11373857 0.55666608
7.132535 -7.9912176 2.8156698
7.0853844 -7.9398994 2.8015568
4.2227669 -0.16577263 0.5544225
5.8077302 -4.5111003 1.2482063
5.804297 -4.5036564 1.396569
5.795526 -4.4855752 1.8470773
5.7912097 -4.4757624 1.9990039
5.7779832 -4.4836864 0.94833964
5.7870908 -4.5108829 1.0989003
5.7895455 -4.5216999 1.3979199
6.9771729 -7.8212924 2.7690487
4.2127838 -0.1707982 0.79697531
7.0416389 -8.0785341 2.8261764
4.2053318 -0.1649795 0.71529341
6.9899454 -8.20051 2.8469498
7.3649559 -9.3613482 1.7440834
7.3386989 -9.3018408 2.8198459
6.9821296 -8.2715101 2.8607891
7.0368237 -8.4937096 1.1604198
5.2448192 -3.2738767 1.7130892
5.2341461 -3.2842107 1.5923074
5.2246308 -3.2580471 1.7083547
4.0237813 0.28567603 0.45871007
4.1610146 -0.12549151 0.6347369
5.2136445 -3.2611721 0.87983
5.2241316 -3.2962584 1.1168518
5.2138252 -3.2674696 1.2310346
4.1683831 -0.16509736 0.79483485
6.9705319 -8.7107344 2.9494438
7.1245875 -9.2826662 2.8021839
6.9704175 -8.8136339 2.9704595
6.9631023 -8.9023266 2.9880686
4.1243429 -0.088809147 0.5963493
5.8963089 -5.6257224 0.83066279
7.0725174 -9.3345985 2.8082457
6.9572029 -8.9781418 3.0031624
5.9006281 -5.7124743 0.83282501
5.8741102 -5.6320415 1.0035001
4.6202683 -1.6832244 1.342592
4.0738907 0.043251436 0.46004197
4.1224809 -0.11488356 0.63446409
5.905118 -5.7970099 0.83493584
5.8662281 -5.6764178 1.0053971
4.6242661 -1.727054 1.3518592
6.9570761 -9.5351334 3.1174259
4.0250421 0.13905078 0.09468881
5.716855 -5.5556369 0.82651198
7.2400398 -10.68441 1.5637827
4.024632 0.13660415 0.27162677
4.0259886 0.12686445 -0.14775851
3.9765561 0.28117388 0.45979589
4.0265241 0.11902773 0.12438811
5.681859 -5.5174751 0.99424154
4.0239487 0.12534058 0.23416343
4.0247459 0.11654729 -0.069599986
4.0754004 -0.071217671 0.55960739
5.7173648 -5.7034764 0.83010322
4.0244069 0.11255264 0.15889929
5.6607709 -5.5132513 0.99361885
4.1001811 -0.16137701 0.7921381
4.023869 0.11043613 0.33434072
4.0238128 0.10986451 0.36818162
6.1671782 -7.4836736 2.6416271
5.640986 -5.6768713 1.0008448
7.1918569 -11.190395 1.904834
6.94945 -10.358147 2.9874001
5.6061749 -5.6250367 0.82668245
7.157372 -11.196112 1.5969619
5.541831 -5.4650564 0.6550675
5.5613585 -5.5399647 0.82400769
5.6531363 -5.8767262 1.0104072
4.0632672 -0.1343382 0.63408041
5.5288219 -5.5074353 0.82277453
5.5178075 -5.5533957 0.99263906
7.0241761 -11.15202 1.5904382
3.9730434 0.18178919 0.080102928
4.6329207 -2.3288925 1.4765915
4.6225152 -2.3196859 1.0072178
4.6214037 -2.3179972 1.0988164
4.6112432 -2.2870114 1.3721373
3.923157 0.34654769 0.44257167
3.9741311 0.14614429 0.10230389
4.5915766 -2.2419643 0.73080134
5.936748 -7.4594393 2.6219621
3.9766927 0.12786777 -0.098518439
4.0220814 -0.06721665 0.56003803
3.9767942 0.12091372 0.12948506
3.9769742 0.11919527 0.16493331
5.5500321 -6.0096931 1.0145907
3.9742668 0.12759383 0.23819794
3.974261 0.12663567 0.27228332
3.9769831 0.11517507 0.30347481
5.1535783 -4.4940434 1.8083465
5.1506057 -4.4867692 1.9564379
3.9752867 0.11603138 -0.063688017
3.9719734 0.12439854 0.094319046
5.1411233 -4.4937181 0.93574923
5.1418505 -4.5008349 1.0805215
5.1417637 -4.5047383 1.2247181
5.1413264 -4.5072832 1.3695717
3.9729843 0.1122914 0.37075627
5.8919172 -7.4931874 2.6262429
3.9238377 0.28732726 0.46217015
4.0267081 -0.12738006 0.63378376
5.12182 -4.491889 0.79259306
5.1240501 -4.5094509 1.0806736
5.8080206 -7.4980259 2.6222503
6.6825323 -11.196351 1.8893672
3.9242535 0.23955736 0.073454343
5.3547597 -5.772121 0.99970818
6.6429439 -11.18745 1.8873545
6.5136027 -10.694067 3.3295047
5.3347168 -5.7775288 0.826671
3.9418132 0.14336891 0.24452387
3.9392352 0.15086095 0.34650466
3.9340529 0.17159119 0.38293016
3.9736617 -0.017059484 0.4556796
5.3181186 -5.7978497 0.8269369
3.9377313 0.14667705 0.1767327
5.2790856 -5.6360574 0.99189264
3.922961 0.20098317 -0.01667922
5.2708688 -5.6912704 0.99432641
3.9001114 0.28207493 0.025190016
6.35711 -10.828618 3.3487809
3.8749912 0.34909645 0.44444501
6.327208 -10.857298 3.3531425
3.961463 -0.11579192 0.63321519
5.1504765 -5.7409172 0.82326639
5.1295676 -5.6488409 0.98969555
4.5965185 -3.1522944 1.5314188
4.5990052 -3.1688159 1.6498567
4.5985875 -3.1949139 0.75400066
4.5702024 -3.1495786 1.1929921
3.9440465 -0.10568043 0.78223467
5.0495248 -5.6693873 0.98919302
5.5822639 -8.4151487 2.8018048
5.0344 -5.7110772 0.99087948
3.9458117 -0.16419864 0.78772497
6.0276361 -10.92022 0.6679703
3.8825378 0.16559052 0.22017241
4.9639401 -5.5581951 0.81628805
3.8845003 0.13540511 0.17627877
6.0127544 -11.096142 1.5621244
5.9707775 -11.0349 0.66760546
4.9644494 -5.6761131 0.81915385
5.9809308 -11.132608 1.5639718
4.5986371 -3.7470381 1.2632505
4.5862074 -3.6864502 1.3804235
5.4693217 -8.464901 2.8066542
4.5783944 -3.6953912 0.88776237
4.5813599 -3.7176304 1.012494
4.5971208 -3.8094683 1.1445943
4.5892701 -3.7730207 1.2659827
3.9174497 -0.11787767 0.85856414
3.8993852 -0.027984587 0.49105117
3.8823135 0.084789924 0.12324805
3.8830125 0.079179034 0.15777676
3.880796 0.084115267 0.30038029
5.4184012 -8.5120707 2.8141408
3.8807995 0.065899551 0.22590117
5.4121747 -8.6403275 2.840874
3.8758466 0.078960039 0.084082581
4.846211 -5.4704151 0.6491307
3.8857231 0.015963519 0.21168362
4.8235817 -5.5717525 0.64904928
3.8728294 -0.00026151756 0.49373451
4.8330798 -5.7648568 0.64940256
3.8757682 -0.0013594154 0.20719977
3.8769178 -0.052076776 0.4890044
3.8737979 -0.035231993 0.52624428
3.8577516 -0.055524547 0.7034331
3.8628235 -0.09380883 0.77902287
4.6778622 -5.5373516 -0.013811965
3.8616855 -0.12317249 0.85746586
4.4994755 -4.4714332 1.9197576
4.6695685 -5.6365099 0.14601351
4.4931421 -4.4827914 0.92342758
4.4905849 -4.4847913 1.2050104
4.49159 -4.5015802 1.3481046
3.8383613 0.018565822 -0.18647821
3.8365719 -0.010673873 0.38744375
3.8165259 0.09929356 0.43834046
3.8257322 0.064877786 0.0044399174
5.745801 -14.23348 4.0379205
3.8228679 0.024175748 0.42792234
3.8273296 -0.0059641898 0.38831466
5.7022648 -14.243337 4.0383058
3.8193781 0.031873405 -0.17787495
4.5194921 -5.6369076 0.64601022
3.8166268 -0.0096920189 0.24365459
3.8269601 -0.14392915 0.85935384
4.4737759 -5.4201698 0.32194799
4.4722285 -5.4216018 0.48303115
5.182066 -11.284921 1.2566218
5.1766901 -11.267228 1.5567143
3.8106153 -0.058286257 0.52463913
3.9917085 -1.718756 1.3163441
3.8066494 -0.076338261 0.26474831
3.8051076 -0.17350633 0.94140345
3.8045917 -0.16436496 0.47888672
3.9648736 -1.7276391 0.41109988
3.7951748 -0.062251236 -0.050246999
4.3716941 -5.5926461 0.31356961
4.3618674 -5.5166593 0.48000672
4.448318 -6.3577666 0.64607495
4.3424468 -5.5253663 0.31642374
3.7866857 -0.064953461 0.30536833
3.7944758 -0.212173 0.94835865
3.7840977 -0.021327939 -0.20564339
3.7831864 -0.017500143 -0.15840119
3.7873805 -0.12826616 0.4446927
3.7886713 -0.079292379 -0.10133073
4.3265562 -5.5510607 0.31515476
4.3321829 -5.6262155 0.47731754
3.7971613 -0.26653227 0.79375786
3.7898288 -0.13545287 0.29051378
3.7873969 -0.17418279 0.43940172
4.3125868 -5.6106448 0.31236106
4.3114462 -5.6181974 0.47730589
3.7826748 -0.095046706 0.18316817
3.7930863 -0.21379623 0.2740058
3.7920542 -0.27890599 0.91899592
3.7896171 -0.25806218 0.95686525
3.7760961 -0.034166943 -0.16691454
3.7771974 -0.050389018 -0.13092884
3.7795026 -0.093774401 0.021406878
3.7760093 -0.067448691 0.11265277
3.7802205 -0.12039985 0.17600158
3.777586 -0.097696193 0.22154084
3.77455 -0.13273859 0.40641466
3.777164 -0.085554786 -0.19407575
3.773947 -0.068001367 -0.052109566
3.7765293 -0.10528133 0.017018422
3.7813201 -0.17632136 0.16008894
3.7744329 -0.10770614 0.21898302
3.7770021 -0.14003678 0.25017995
3.7697601 -0.063635379 -0.13728444
3.7681513 -0.07273037 0.070925362
3.5029004 -0.28876293 0.91611999
3.522248 -0.13905905 0.32576597
3.5341249 -0.017750802 -0.20506278
3.5244813 -0.12497004 -0.079816349
3.5211968 -0.16482724 -0.052755374
3.5216053 -0.13834698 0.044404224
3.5187039 -0.17218003 0.074724235
3.5220883 -0.1121215 0.135516
3.5194306 -0.14231731 0.16701035
3.5194314 -0.13321064 0.20949978
3.5025139 -0.21949106 0.90468931
3.5198178 -0.10145277 0.33272475
3.5315261 0.0086616138 -0.19042993
3.5221539 -0.10051739 -0.11343765
3.518692 -0.13133593 -0.038953424
3.521858 -0.075678363 0.025930973
3.5169291 -0.12835369 0.089376487
3.5185254 -0.096546173 0.14021358
3.5144894 -0.1192682 0.2909728
3.5002537 -0.18370546 0.89877868
3.4991007 -0.19066389 0.93958515
3.5243218 -0.027293038 -0.16562055
3.5173848 -0.096956797 -0.067752466
3.5158651 -0.10891075 -0.029770255
3.5127931 -0.10711921 0.17679398
3.5132961 -0.092008024 0.21999826
3.5115526 -0.099424444 0.29506457
3.5130568 -0.063857749 0.37616363
3.5249014 0.028411185 -0.1797729
3.5232735 0.015300935 -0.14314613
3.512614 -0.11246611 -0.11956461
3.073421 -5.4204459 0.62681168
3.3409762 -1.7900363 1.0081207
3.3455186 -1.7249422 1.0765555
3.3385656 -1.7419211 0.85180324
3.3384728 -1.7298259 0.92582881
3.501653 -0.0029606347 0.053195398
3.4748113 -0.16852039 0.77999949
3.4740541 -0.16352528 0.8566345
2.934685 -5.6409783 0.4579311
2.9162056 -5.6009617 0.45847932
2.8942416 -5.6328797 0.45736861
3.4637225 -0.084897563 0.84552377
3.4633877 0.034719028 -0.1807662
2.6177444 -6.7461271 -0.15208524
2.7762067 -5.414402 0.29889593
2.7128041 -5.4424815 0.29619831
2.6819172 -5.6120195 0.78641707
2.7087436 -5.3166795 0.460776
2.6650207 -5.5976386 0.78583759
2.6343939 -5.7682633 -0.062158421
2.6715858 -5.4570293 0.29459226
2.6125793 -5.7591639 -0.061979827
2.6476521 -5.4698038 0.29345843
2.6125965 -5.6569648 0.7865597
2.5897782 -5.7840514 -0.064941414
2.6253889 -5.4765873 0.45559189
2.6104305 -5.4462323 0.29363456
1.2519554 -14.190136 3.9717724
2.5680449 -5.5215874 0.94683278
1.2077492 -14.185504 3.9714267
1.9289725 -9.7036037 -0.4427954
2.5664907 -5.4759655 0.2912429
2.4529727 -6.1568465 0.79649824
1.8709069 -9.8598099 -0.45885763
2.5484078 -5.4569826 0.2916522
2.5484271 -5.4386907 0.4548333
1.8315042 -9.8918705 -0.46303406
2.5257215 -5.4675479 0.29062146
1.8005266 -9.8828402 -0.46321148
2.6490026 -4.4767866 1.3214017
1.7666451 -9.8792906 -0.46399283
2.6431377 -4.4331174 1.0364484
2.4591055 -5.4950633 0.2877267
2.6379001 -4.4161105 0.47898382
2.7287123 -3.7455027 1.7420124
2.7160575 -3.8019838 1.117319
2.7206728 -3.749635 1.3622792
2.7161059 -3.7300234 0.86376399
2.7106678 -3.7483416 0.98870718
1.6320096 -9.882432 -0.46877709
1.8215579 -8.7800179 -0.11739723
2.400795 -5.4788775 0.28695637
2.284502 -6.082315 0.79238975
1.5983241 -9.8885336 -0.47048369
2.3750913 -5.5108051 0.28486705
2.376812 -5.4847598 0.4501572
3.3764937 0.012205763 0.050346725
2.3891656 -5.3998289 0.61538494
2.2694912 -6.0450926 0.79128224
1.7558541 -8.6890574 2.8021066
2.3605514 -5.4574122 0.45039046
2.3713505 -5.3823552 0.61504292
2.7885158 -3.0601027 0.40472084
2.7680886 -3.094882 0.40263319
2.321507 -5.4460597 0.44976822
2.7413731 -3.1195319 1.6099477
3.3763614 0.089638732 -0.075926892
2.728272 -3.1665449 1.0581166
2.7242911 -3.1765707 1.1699153
2.7287798 -3.1430326 1.2775011
3.3257236 -0.078450076 0.91989952
1.6661636 -8.5170374 2.7678158
2.7341275 -3.0948932 0.72610438
2.7267435 -3.112114 0.94414306
2.7156768 -3.1580122 1.0573188
2.7139719 -3.1563506 1.1676114
2.1966143 -5.8094621 -0.080386557
1.6100285 -8.7666101 -0.12302821
2.1944895 -5.7398577 0.78285742
1.1310337 -11.05562 1.1938617
1.1239057 -11.063595 1.4938937
1.113055 -11.090232 1.7947961
2.1708143 -5.826633 -0.082879096
1.5758379 -8.7801104 -0.12502649
2.2025423 -5.636456 0.27466989
2.2440634 -5.4146104 0.44869339
2.1984789 -5.6101465 0.77976716
1.0915002 -11.059932 1.1937048
2.2060924 -5.5027843 0.44593182
2.1703012 -5.6472697 0.7802822
2.1322699 -5.7770414 0.26651114
2.1801848 -5.5301075 0.44474909
2.1828136 -5.5023937 0.61180168
2.103009 -5.8035736 0.2645216
2.1483746 -5.5724769 0.4431048
