# .PCD v0.7 - Point Cloud Data file format
VERSION 0.7
FIELDS x y z
SIZE 4 4 4
TYPE F F F
COUNT 1 1 1
WIDTH 1493
HEIGHT 1
VIEWPOINT 0 0 0 1 0 0 0
POINTS 1493
DATA ascii
5.4964218 0.1301387 0.2502178
5.4349856 0.22332665 0.34948543
5.6320062 -0.084441856 0.92063713
5.5129824 0.095195517 1.2027881
5.4897056 0.13197953 0.20563492
5.4514117 0.19023807 0.28817689
5.4446406 0.19307677 0.24628387
5.427352 0.2192924 0.30714563
7.0925746 -2.3734446 0.8269425
5.6232076 -0.093338437 1.0928276
5.6503878 -0.13604572 1.1379187
5.5002041 0.096207686 1.2400652
5.5073762 0.090754509 0.70368141
5.5712705 -0.016600862 1.46575
5.4142475 0.23219925 0.27274534
5.5071592 0.083545268 0.58074164
5.5076895 0.0805353 0.78097034
5.4013906 0.24490024 0.28218159
7.1091056 -2.4482296 0.82315975
5.5656605 -0.026318494 1.4237213
7.1017976 -2.4623175 0.82267344
5.6493788 -0.16397958 1.0046097
5.6391702 -0.15349378 1.5010408
5.596746 -0.091201589 1.0923905
7.0796733 -2.4667542 2.1355758
5.5689497 -0.053696942 0.92484516
7.0615573 -2.445123 0.82433408
5.6403852 -0.17077065 1.1387771
7.1084166 -2.534771 2.0370805
5.6406817 -0.18610355 1.4134341
7.074028 -2.517292 0.82072419
5.3891211 0.21109298 0.87974089
5.4667816 0.083897062 0.89963973
7.081717 -2.5547576 0.81881905
5.520412 -0.013960898 0.88874096
5.5254016 -0.026441077 1.2122489
5.6081734 -0.1658673 1.452847
5.6028371 -0.15766779 1.4971981
7.0065374 -2.4827242 0.71554536
5.3936205 0.19296972 0.43052551
7.109077 -2.655412 0.92533934
5.4578028 0.084523171 0.58830345
7.1180577 -2.6794069 1.6018252
5.4547806 0.087903574 0.70889735
5.457727 0.081992708 0.78535479
7.010273 -2.5153918 0.71323222
7.0644865 -2.607229 0.81671
7.1267066 -2.7124672 0.9236511
5.5478516 -0.085250258 1.3454474
7.0161982 -2.553674 0.7104665
7.123477 -2.7416849 1.2644072
7.0617452 -2.6576838 0.81438142
5.5938406 -0.17918701 1.0046747
5.5896535 -0.17791161 1.4070051
5.3573594 0.20598616 0.88096887
7.1020374 -2.7828169 0.92191595
5.4254704 0.094842158 0.51461273
7.1005163 -2.7853775 1.2651978
7.0974555 -2.7835927 1.4950161
7.0909147 -2.7741044 1.608918
7.0998573 -2.7947459 1.9628321
7.0034509 -2.6352007 0.70534122
7.0633769 -2.7400699 0.81043172
7.1200552 -2.8394136 0.92022353
7.115449 -2.8367999 1.2672993
7.1072826 -2.8262775 1.4986472
7.0977139 -2.8115404 1.6128479
7.0082822 -2.671576 0.70271504
7.0669084 -2.7749469 0.80869776
7.1133022 -2.8571763 0.91977918
7.1122165 -2.858932 1.1520981
7.1166396 -2.868428 1.2683688
5.3513842 0.19106585 0.87966818
5.3569198 0.18849111 0.43649948
7.1285596 -2.9152732 0.91805881
5.5569048 -0.17648627 1.4035368
7.0820708 -2.8583312 0.80441463
5.5538454 -0.17465438 1.0050855
5.5464969 -0.16316056 1.0925092
5.4083242 0.088527098 0.55620944
5.6032228 -0.26443881 1.1869944
5.4075131 0.087384164 0.71367854
5.4062324 0.088384107 0.79036731
5.5516233 -0.17874116 1.4949764
5.4005079 0.093597062 0.51832563
7.1082077 -2.9422576 1.2705523
5.4048061 0.084697187 0.59578997
7.0999155 -2.9314981 1.5059919
5.3976865 0.095932573 0.67797375
5.5552545 -0.19364199 1.3152961
7.1000848 -2.9397833 1.9854209
7.0010114 -2.7720745 0.69603908
7.0506067 -2.862339 0.8047834
7.1078272 -2.9722815 1.2715254
7.1054702 -2.9741507 1.6285858
7.1110005 -2.9860764 1.7501587
7.059967 -2.9074512 0.80243164
7.116827 -3.0114415 0.91543603
7.0766468 -2.9434495 1.1525731
5.5514483 -0.20941119 1.3168221
7.0078421 -2.8436103 0.69090039
5.3073173 0.23456323 0.46358132
7.1231251 -3.0559659 0.91413808
7.1044116 -3.0263829 1.1540673
7.1046596 -3.0289416 1.2732933
7.1030002 -3.0301907 1.5134147
7.1217923 -3.0685351 1.7604138
7.0064373 -2.8694377 0.68914968
7.0600734 -2.9690292 0.79943132
5.5020661 -0.14619017 1.4825191
7.1197162 -3.1164293 1.27658
7.1064062 -3.1175456 0.91247714
7.0965996 -3.1062572 1.2756014
7.098537 -3.114399 1.5194062
7.1050429 -3.1287189 1.6431336
7.1101322 -3.1404436 1.7678369
7.0785089 -3.0889134 2.1313174
5.4649811 -0.099850543 1.4688462
6.9980431 -2.9443839 0.6841628
7.0536509 -3.0498273 0.79557669
7.1108532 -3.1583164 0.91128385
7.1085858 -3.1611025 1.2777328
7.1082978 -3.1676207 1.6470126
7.114222 -3.1810303 1.772814
7.0834069 -3.1307783 2.1393163
5.3055768 0.18840596 0.88172203
6.9978485 -2.9716492 0.68226045
7.0541253 -3.0790401 0.79412961
7.1072674 -3.1806598 0.91065902
7.10109 -3.1738722 1.155833
7.1068306 -3.1869886 1.2785319
7.1066642 -3.1914759 1.5255153
7.115068 -3.2120626 1.7764577
7.0933843 -3.1787579 2.1489558
7.0165815 -3.0385063 0.67706823
7.0603738 -3.1232409 0.79184711
7.1160269 -3.230361 0.90918046
5.4822111 -0.15743229 1.0913633
5.3562751 0.090935998 0.5244596
7.1136236 -3.2331827 1.2802351
5.3552847 0.091999613 0.56488526
5.3565288 0.088896938 0.60327631
7.1049447 -3.2217388 1.5276712
5.5063043 -0.20631258 1.2687193
5.3567352 0.086229242 0.7183826
5.3562474 0.085656933 0.79363966
7.0375977 -3.1086204 0.67158145
7.0821104 -3.1953523 0.78793609
5.4782195 -0.15910794 1.0059562
5.4938436 -0.19310002 1.2228897
5.5005822 -0.20768987 1.3129283
7.1030445 -3.2733676 0.90799278
7.0968223 -3.2691495 1.2809443
7.1148701 -3.3088424 1.5346254
7.0914431 -3.266573 1.6553698
7.1007099 -3.2869234 1.7840883
7.0792942 -3.2511175 2.0323737
7.3755522 -3.8254547 2.4407609
6.9921174 -3.0874107 0.67426729
7.0452967 -3.1920855 0.78866094
7.0914187 -3.29636 1.532536
7.0974212 -3.3132279 1.7869037
7.085947 -3.2964587 2.0401742
7.0014472 -3.136487 0.67055529
7.047925 -3.228967 0.78678143
7.1059875 -3.3439434 0.90591872
7.0694809 -3.2785854 1.1565694
7.1014991 -3.343292 1.2835041
7.1036439 -3.3528497 1.5373391
7.0994983 -3.3475099 1.6635526
7.1076064 -3.365984 1.7937512
5.4580784 -0.1630833 1.3919809
7.004354 -3.1776061 0.66756576
7.0441642 -3.2578552 0.78539145
7.0963855 -3.3623722 0.90541661
7.0901375 -3.355659 1.157859
7.0982242 -3.3741894 1.2844249
7.1015177 -3.3889368 1.6676197
7.0060263 -3.2148204 0.6648789
7.0519481 -3.3077042 0.78277904
7.1111135 -3.4266827 0.90346617
7.1073952 -3.4278409 1.2864387
5.4945722 -0.25495195 1.1822568
7.0984702 -3.4159429 1.5417796
7.3185263 -3.8652179 2.2958641
7.0630064 -3.362561 0.77986413
5.4501467 -0.17978936 1.2197417
7.1020722 -3.4600143 1.6744324
7.10537 -3.4694924 1.8056341
7.2929964 -3.8518145 2.2908177
7.2744989 -3.8182771 2.4276974
7.091908 -3.4565427 0.90265161
7.0872021 -3.4559515 1.2867961
7.0880775 -3.4636002 1.5448228
7.0811634 -3.452739 1.6724931
7.2763014 -3.8558338 2.2898343
6.9928813 -3.2906487 0.65978825
7.034421 -3.3768952 0.77953577
5.3947539 -0.089990415 1.0890356
7.0900402 -3.5126531 1.8095956
5.3077865 0.092370629 0.76132768
7.282064 -3.9098728 2.3002038
7.2653499 -3.8795314 2.4390855
6.9981904 -3.3325427 0.65665871
7.0395117 -3.418963 0.77733707
7.1017303 -3.5476894 0.89990735
7.0856566 -3.5213392 1.1597701
7.0933409 -3.5399575 1.2897197
5.3081899 0.087135158 0.56989205
5.3066878 0.089233145 0.60956395
7.0922217 -3.5438838 1.5510191
7.0914068 -3.5453374 1.6819571
7.1006112 -3.5671422 1.8166966
5.3039274 0.092096709 0.72432083
5.3076329 0.082892708 0.79653531
7.0183382 -3.4093256 0.65066856
7.0611863 -3.4995749 0.77295899
7.1036367 -3.5890944 0.89866394
7.0867214 -3.5609391 1.1602609
7.0881619 -3.5670121 1.2904615
7.0852141 -3.5673234 1.5524307
7.0974641 -3.5955286 1.687122
5.4136453 -0.15866502 1.4306293
5.4127402 -0.15869549 1.0062095
7.0972433 -3.630188 1.557717
7.1199379 -3.6834965 1.8316478
5.4070983 -0.15750673 1.4297596
5.2555442 0.15847853 0.88065684
5.4074445 -0.1564642 0.92230868
5.3999538 -0.14619191 1.1312605
5.4074612 -0.16594952 1.3015232
5.2846909 0.09313444 0.65150923
5.8249006 -1.0579346 0.91321343
5.2818022 0.088151798 0.32708257
7.1116929 -3.7938201 0.89246982
5.25634 0.1370424 0.5146122
7.0975533 -3.7710338 1.1629394
7.0978885 -3.7752717 1.2975562
7.0995765 -3.7859731 1.569507
7.100934 -3.7924285 1.7062378
7.1025929 -3.7995501 1.8440777
5.2428975 0.14585149 0.87974393
5.2739253 0.094407 0.33135682
7.0408149 -3.679955 0.76398146
7.0978212 -3.8047786 0.89216238
5.4413323 -0.28601471 1.2272656
7.0635395 -3.770756 0.75903678
5.3818846 -0.16675197 1.006031
7.0263662 -3.7263546 0.76175112
7.0985923 -3.8860285 0.88967919
5.2570877 0.10237366 0.25014693
7.0051675 -3.7207277 0.76227677
5.2561502 0.096271813 0.54042178
7.0814228 -3.9019945 1.3012483
5.2574658 0.091290407 0.61581248
5.2561636 0.090977497 0.72809398
5.2563543 0.089537978 0.76460022
5.2569895 0.087149739 0.80039281
5.4006357 -0.24520725 1.4910861
5.2536616 0.096956402 0.33634651
7.0952744 -3.9747605 1.3040191
5.4043636 -0.2670691 1.4959836
7.0627618 -3.9287972 0.88840449
7.0875301 -3.9915884 1.1653322
7.091722 -4.0049005 1.3049073
7.0630422 -3.9747143 0.88698417
7.0720286 -4.0029554 1.165179
5.3447561 -0.15698645 0.92359859
7.0857434 -4.1134052 0.88266611
7.0927629 -4.1423197 1.3094387
7.0873384 -4.2021909 0.87989414
5.301455 -0.10037417 1.0874685
7.0717587 -4.1798806 1.3100829
7.0609317 -4.1685061 1.7403438
5.3183856 -0.14579096 1.2931695
7.3525915 -4.868113 2.6514497
5.1856794 0.18044728 0.30380014
5.2063513 0.11415913 0.87749028
5.224453 0.088082843 0.38009122
7.0895762 -4.2535057 0.87828642
5.1759048 0.19653574 0.50962132
7.0771346 -4.2385244 1.3121544
7.0734844 -4.2393422 1.6024694
7.0802565 -4.2597752 1.750297
7.0863938 -4.2787862 1.8996792
7.0667109 -4.2563305 1.1679884
7.0711908 -4.2715235 1.3130696
7.0658994 -4.2686181 1.604336
7.080358 -4.3073225 1.7549297
7.0824823 -4.3171353 1.9039876
5.3112526 -0.15879539 1.0063123
7.0785742 -4.3433447 1.6105884
7.0912766 -4.3782907 1.7624471
7.0978894 -4.3989019 1.9147207
5.2082071 0.091886036 0.76825631
5.2051153 0.10412435 0.30569586
5.2044759 0.096272647 0.5851838
7.0869999 -4.4089994 1.6159588
7.0872169 -4.414536 1.7657555
7.0852885 -4.4149885 1.9158258
5.2064443 0.084299944 0.80282116
5.3000841 -0.15876341 1.4196736
7.2857375 -4.9157925 2.6544814
5.2042594 0.093106568 0.34355196
5.2057915 0.088084452 0.38316441
7.2931147 -4.9908772 2.6708615
5.29706 -0.16740564 1.088148
7.074851 -4.4788446 1.6207056
7.0787253 -4.493475 1.7729923
7.0834651 -4.5102592 1.9270784
7.3001165 -5.0597162 2.685914
5.1909847 0.09681122 0.54877925
5.2870293 -0.16023861 1.210538
7.0770965 -4.5371509 1.7771707
7.0839705 -4.5593643 1.9329783
5.3169374 -0.23632312 0.87530184
5.182837 0.11016008 0.39617693
7.079195 -4.5912113 1.6294507
7.0746145 -4.5854125 1.7817546
7.0880413 -4.6240854 1.940977
7.0808482 -4.6442909 1.6335673
5.272388 -0.1532601 1.250118
7.0931435 -4.6861839 1.9487326
5.3082356 -0.2419844 0.87496579
5.1465068 0.17803156 0.4306775
5.2744217 -0.16393544 1.0467411
7.0893216 -4.720963 1.7958225
7.0839801 -4.7133718 1.9514132
5.1227126 0.22830355 0.37973523
7.0679555 -4.7181325 1.6386107
7.0703053 -4.7686262 1.6425687
7.0728111 -4.7810011 1.8008199
7.0739269 -4.7898874 1.9599619
5.2534509 -0.14594293 0.88561308
5.2575989 -0.16122733 1.0061511
7.0658584 -4.8153172 1.6459326
7.0689807 -4.829483 1.8053733
7.069994 -4.8382754 1.9655284
5.8580899 -1.7310816 1.846831
7.3786411 -5.629087 0.47931141
6.9886193 -4.631536 0.71411186
7.0583277 -4.8481755 1.6481045
5.157557 0.097000487 0.6645301
7.0620794 -4.8641605 1.8084115
7.0623016 -4.8710432 1.9689906
5.1583652 0.090728819 0.77105683
7.3875947 -5.7111335 0.47294882
6.9895887 -4.6846805 0.71123123
5.1551719 0.094913438 0.5900141
7.0563335 -4.8959274 1.651665
7.0763059 -4.9545507 1.818054
7.0770826 -4.9630713 1.9809723
5.1520805 0.094293907 0.80721933
5.8488708 -1.7576587 1.7671317
5.855361 -1.7781162 1.85645
5.2553897 -0.19212265 0.88105088
5.154386 0.094555348 0.35245028
5.1042027 0.222148 0.45590582
5.2550845 -0.19467802 0.96386218
5.2382102 -0.16027552 1.2083372
5.8596721 -1.8018327 1.4434087
5.8557568 -1.7948395 1.524537
7.3175993 -5.6545644 0.47820964
6.9736743 -4.752718 0.7076233
5.8104839 -1.6906196 1.19332
5.8028722 -1.6934311 1.7510862
7.272264 -5.6302156 2.8027909
7.2837687 -5.6246691 0.48093626
6.9626737 -4.7760544 0.70640725
5.8191566 -1.7407306 1.1952039
5.8068156 -1.7176726 1.4323335
7.0490522 -5.0606155 1.99101
7.2553897 -5.6382031 2.6173401
7.2572479 -5.6175246 0.48182192
6.9664807 -4.8428383 0.70275092
5.2034941 -0.10341299 1.0466018
7.0638857 -5.1326346 1.3410782
7.0652118 -5.15026 1.6715291
7.0614562 -5.1471329 1.8362375
7.0693827 -5.1757293 2.0061343
5.0469303 0.32589516 0.87910312
7.2644668 -5.6939201 0.29745603
6.9630089 -4.8909569 0.70013946
7.0638313 -5.1717443 0.84872299
7.0594435 -5.181138 1.3425432
7.0551338 -5.1837139 1.6736493
7.0547528 -5.1898685 1.8401037
7.2565079 -5.7735848 2.6429019
7.3248596 -5.9326134 0.45682985
6.960639 -4.9428625 0.69731098
7.0455484 -5.1826897 0.84829193
7.0533671 -5.2259178 1.3438407
7.0489507 -5.2284069 1.676806
7.0613546 -5.2700043 1.8483595
7.0594859 -5.2722855 2.0172036
7.29603 -5.9510212 2.6796761
5.2082615 -0.15229163 0.88595271
7.3946152 -6.1894455 0.43626684
6.9699821 -5.0244522 0.69280672
7.0650811 -5.2946892 0.84468669
7.0619016 -5.3233209 1.6846601
7.0720544 -5.3591628 1.8577235
7.0727286 -5.3686929 2.0296578
7.3787251 -6.2163439 0.43437943
6.9817901 -5.1178312 0.68764168
7.0570955 -5.3737421 1.6883227
7.0570817 -5.3814402 1.8591526
7.0570259 -5.3890781 2.0311887
7.3164544 -6.1456552 2.7181036
7.358408 -6.2733307 2.9467258
5.1983366 -0.15372829 0.88600135
7.0362406 -5.3368526 0.84316832
7.0507207 -5.4009895 1.3495027
7.051127 -5.4257627 1.8632313
7.0470338 -5.4220943 2.0345953
7.3385272 -6.2771144 2.744771
7.3443813 -6.3031502 2.9517591
7.359858 -6.2949705 0.4285233
6.9681692 -5.1925879 0.68357414
7.0536561 -5.4430661 0.8397333
7.0618501 -5.4903069 1.3527397
7.0562077 -5.4903264 1.6972464
7.0557342 -5.5052114 2.0451853
5.1068721 0.096570998 0.80962861
7.3393793 -6.345367 2.757741
7.3631411 -6.386776 0.42139199
6.9764075 -5.2870321 0.67834443
7.0518384 -5.5114708 0.83745515
7.0545044 -5.5436835 1.3542835
5.1071477 0.091543145 0.59357667
5.1068611 0.090627201 0.63021415
7.0487452 -5.5435944 1.7010214
7.0477929 -5.5491333 1.8752795
5.103601 0.09481287 0.73942572
5.1055174 0.095998816 0.36043695
7.372014 -6.4786701 0.4141871
6.9737902 -5.3365507 0.67561674
7.0505762 -5.5669136 0.83560568
5.0563898 0.22990914 0.53776085
5.1023464 0.09567564 0.55799258
7.051753 -5.5953927 1.3559008
7.0445914 -5.5914221 1.704524
7.0467863 -5.6062846 1.8808942
5.1744704 -0.15440923 1.4079109
7.382062 -6.5890698 0.40552869
6.9828849 -5.4326701 0.6702798
7.0518136 -5.6425748 0.83309197
7.0435367 -5.6612988 1.7098613
7.0583744 -5.7136984 1.892138
5.0846176 0.10565832 0.88021249
7.3910751 -6.6892076 0.39766786
5.1577878 -0.11506186 0.96857935
5.1583591 -0.11867128 1.0071533
7.0566502 -5.7751732 1.8981534
6.9686332 -5.5176072 0.66559851
7.0471711 -5.7602153 0.82913631
7.0439939 -5.7957621 1.7202476
7.0445437 -5.8065181 1.9006578
7.3625445 -6.7597556 0.39243981
6.9820356 -5.6268239 0.65950924
7.0365028 -5.7995977 0.82775491
5.1416516 -0.10468667 1.1226903
7.0417862 -5.8616104 1.7252343
7.0503159 -5.8967991 1.9099209
5.8597255 -2.3070428 1.871762
5.8543897 -2.2958064 1.9660459
5.1574168 -0.15508738 0.88657522
7.3390331 -6.7654223 0.3922016
5.8647604 -2.3045833 0.84582776
7.0425177 -5.8860345 0.82488972
5.8650942 -2.3346457 1.4028239
5.8571138 -2.315129 1.4940873
5.0542803 0.16197024 0.82266629
5.0018415 0.3185128 0.87956887
5.050519 0.15708177 0.88731205
5.1439757 -0.13017099 0.88928419
6.9908662 -5.7921023 0.65029424
5.855813 -2.3296852 1.1229191
5.824069 -2.271332 1.8621322
7.2954116 -6.7860403 0.18811223
7.3744555 -7.0411925 0.37037066
6.9859796 -5.8503647 0.64704585
5.8199964 -2.2717934 1.3960555
5.8200731 -2.277009 1.488453
5.0454736 0.14711414 0.88619965
5.8158331 -2.2698331 0.938887
7.391953 -7.2658529 0.35264283
5.8071928 -2.2809658 0.93845206
5.154861 -0.22842053 1.168327
5.1347513 -0.1667552 1.2043558
7.0640149 -6.3165503 1.9524031
7.1900983 -6.7761669 3.0389323
7.3768969 -7.3082085 0.34942499
6.9921851 -6.0935459 0.63342953
5.1033201 -0.074239649 1.0456473
5.0577879 0.094631292 0.63512135
7.0497098 -6.352304 1.9552697
5.0568242 0.091712818 0.74126339
5.1228352 -0.15694581 1.4042809
5.0578709 0.095581986 0.36663911
7.3781848 -7.4038677 0.34189919
6.9970541 -6.1882391 0.62811393
7.0430894 -6.3474712 0.80930245
5.1072135 -0.10733202 1.1218157
5.0547447 0.092375554 0.59824872
5.1356163 -0.20406222 1.2072809
5.1244478 -0.17007701 1.2441654
7.3695011 -7.5277057 2.9849036
7.3626652 -7.5186963 3.2126293
5.0524988 0.099583343 0.36917746
7.3722734 -7.4724531 0.3365407
7.043601 -6.426796 0.80660921
7.3594666 -7.5459194 2.3113141
7.3328905 -7.4979758 2.9764168
7.3250051 -7.4854188 3.2023335
7.1940904 -6.9699082 0.17096992
7.3452721 -7.4785953 0.33622077
5.1050205 -0.12358875 0.96812963
7.049274 -6.5295572 0.80315226
5.0997896 -0.11089937 1.0451645
7.0511961 -6.5590219 1.1927699
5.0454154 0.097107023 0.56363797
5.1149421 -0.16557592 1.1239396
7.051723 -6.6075349 1.980864
7.3200831 -7.5123243 2.305023
7.297152 -7.4760933 2.9695094
7.1864161 -7.0345726 0.16451631
7.3079009 -7.4502888 0.33866799
7.0491805 -6.61519 0.80022985
7.2933493 -7.5203829 2.3045409
7.2793574 -7.5141983 2.9754539
5.0957856 -0.1201585 0.8909542
5.0847111 -0.08540082 0.93236309
5.0903082 -0.10882042 1.0070256
5.0060301 0.20400284 0.53313273
5.1013665 -0.16045474 1.2420888
7.2474456 -7.4930511 2.969002
7.2308989 -7.4506855 3.1870785
5.0770106 -0.073830739 0.89587736
7.0464597 -6.8476944 2.0046442
7.2329979 -7.50107 2.298876
7.2145667 -7.4941287 3.1950881
5.0748606 -0.090439186 1.0075283
5.1050634 -0.20698455 1.2062441
7.049274 -6.9504328 2.0150709
7.1874709 -7.4861622 2.9632075
4.9973154 0.19371508 0.52996963
7.1468229 -7.438765 2.9511082
4.9549351 0.31855464 0.8808527
7.2523246 -7.8262305 3.2696624
5.0147157 0.09637633 0.88051248
7.2151642 -7.7942777 3.2597947
7.0357585 -7.1755543 2.0370109
7.113544 -7.5134177 2.9630108
4.9921832 0.14570487 0.88703001
5.0657191 -0.15338305 1.3993244
5.0543962 -0.1145004 1.1585841
5.0075197 0.091865405 0.63765377
5.0041909 0.096611284 0.74470347
7.1331477 -7.8048959 3.0204904
7.1468749 -7.8720798 3.2711861
5.0073886 0.095920406 0.37273735
7.0238233 -7.4387746 2.0628967
7.374115 -8.7549725 2.4606771
4.9995537 0.09631148 0.77936411
7.1362376 -7.9376411 3.2845273
5.0696988 -0.21279839 1.2458521
7.3434319 -8.7550526 2.4590795
4.9946852 0.094933942 0.60333508
5.0542521 -0.20751466 1.1637185
5.00809 -0.10375202 1.3857044
5.0066009 -0.10736667 1.2703764
5.0064669 -0.10994488 1.3092875
5.0083933 -0.12744516 1.4303184
4.9575911 0.10591172 0.88250005
5.0074325 -0.12377921 1.1958503
4.908246 0.30819547 0.88025945
4.9583144 0.093840942 0.78014004
4.9568744 0.092747711 0.64069694
4.95609 0.10150352 0.38052064
5.0069132 -0.18220322 1.1607314
4.9502301 0.094955727 0.74629325
4.906106 0.25956371 0.84363478
5.790257 -3.7452123 1.5097084
4.9327707 0.096995689 0.57141954
4.9332018 0.091783687 0.60583007
4.9711332 -0.13301295 1.1568201
4.9567361 -0.084776856 1.3405952
4.9244442 0.098166272 0.78182214
4.9082141 0.096752159 0.78187698
4.9078445 0.096173756 0.60840178
4.9066758 0.10737113 0.38740736
4.9036751 0.094879016 0.64362788
4.8560734 0.30879954 0.88100719
4.8870001 0.046203826 0.87534583
4.8809371 0.094429873 0.74792498
4.8720889 0.10399441 0.88277245
4.875298 0.098406598 0.78275013
4.8584342 0.19356015 0.43210718
4.8536625 0.20003876 0.43552095
4.8561025 0.15462229 0.33527038
4.8569155 0.089250952 0.78115231
4.8554754 0.096312404 0.61035877
4.8506832 0.097064666 0.64592206
4.8483944 0.096764982 0.74896795
4.8519111 -0.0028387913 1.1112655
4.8517065 -0.03755847 1.147664
4.8056154 0.30191663 0.88019484
4.8287525 0.10089722 0.88231331
5.9029961 -7.4995999 3.1060243
5.8473496 -7.5037241 3.1038647
4.8109317 0.10022857 0.78366297
4.8061471 0.15588835 0.52668679
4.8072305 0.11845817 0.68744081
4.8077912 0.10270461 0.75068182
4.8079228 0.095875062 0.78279853
5.7440662 -7.4981012 3.0970907
4.8077011 0.10816924 0.54392743
4.8069973 0.10082065 0.61296588
4.8067393 0.096565284 0.64663416
4.8031526 0.099215627 0.78347903
5.2022977 -3.2665844 2.0162871
5.1995368 -3.2666004 2.1326492
4.8080382 0.11118847 0.35517669
4.8042426 0.092802852 0.61041301
4.8069701 -0.03168809 1.1459441
5.2017312 -3.2620435 1.4504068
5.2002621 -3.271771 1.5628115
5.1967764 -3.2650707 1.6740667
4.7728839 0.29337126 0.87881982
4.8054023 0.11009005 0.3138704
4.7984681 0.10132996 0.6481697
5.1919494 -3.3148737 1.566924
4.8042536 -0.080802038 1.3320296
4.8070264 -0.15655561 1.3844182
4.7988753 0.096940883 0.3069711
6.0517054 -11.195999 2.4057455
5.2028952 -3.7819853 2.1178949
5.2125196 -3.8978047 2.2730403
4.7884302 0.096045345 0.57615936
6.009584 -11.09444 2.0979192
5.2020812 -3.8356569 1.7460922
4.7830868 -0.0059667756 1.1094469
5.1935716 -3.8309193 1.4952075
5.1705742 -3.7632377 1.4890845
5.9319201 -11.170384 2.6977842
5.9033442 -11.108033 3.5954735
4.7830343 0.092232831 0.34627444
4.7914367 -0.2072053 1.2734059
4.7737594 0.086927265 0.74720687
4.7912683 -0.2352457 1.3992136
4.7707095 0.092871815 0.68070036
4.780376 -0.15509304 1.3051531
4.7822995 0.026069039 0.31213999
4.7728539 -0.0259137 0.90058315
5.3262448 -5.867188 1.6610231
4.774405 -0.15341584 1.3433264
4.7778807 0.040017344 0.27659506
4.7617474 0.14528207 0.52335221
5.307219 -5.8850451 1.6618232
4.7699528 0.023019385 0.66150099
4.7761045 -0.22250429 1.3553886
4.7566509 0.1766984 0.46476534
4.7652922 0.065860093 0.52869856
4.7631021 0.042783961 0.70228142
4.7419157 0.23507039 0.84027028
4.7777648 -0.05109968 0.27237657
4.7594233 0.11889948 0.39983577
4.7633567 0.041256197 0.51942039
4.7579041 0.087278284 0.57341003
4.7578869 0.078288436 0.60617119
4.7570591 0.077700756 0.64137965
4.7580338 0.095317543 0.3883521
4.753581 0.13080335 0.44371995
4.7698946 -0.058912437 0.26849049
4.5489316 0.095403381 0.3435581
4.5352869 -0.018212989 0.53060371
4.4947939 -0.24167857 1.3503931
4.5350142 0.024528611 0.50742197
4.5311165 0.016734656 0.61720443
4.5259123 0.0039674216 0.75809109
4.5431523 0.16229576 0.45298788
4.5377455 0.093744017 0.45955977
4.5314169 0.011995761 0.46347949
4.5283589 0.0011880866 0.53705615
4.5265212 0.024542669 0.65584844
4.5245686 0.011850959 0.68835968
4.5201049 -0.021141106 0.75275153
4.5350199 0.21879771 0.86165059
4.5283618 0.047517017 0.51574183
4.5252867 0.051718671 0.62743038
4.4841423 -0.19344586 1.3418289
4.5397792 0.18854506 0.39124146
4.4800029 -0.20128459 1.3033972
4.5174241 0.096137606 0.74279159
4.4813662 -0.20929502 0.91213977
4.5165682 0.096602947 0.64045554
3.9986682 -5.5341802 0.77796811
4.004559 -5.4128208 0.9430424
3.9612234 -5.8354015 1.1072946
3.4551923 -11.209735 1.7354733
4.4652963 -0.22769441 1.2268156
4.5083518 0.093860775 0.77542531
4.5090227 0.19126149 0.91674966
3.8804941 -6.7171597 0.345929
3.5741794 -9.996747 0.3311778
3.9862361 -5.3890443 0.94277769
3.9399676 -5.8294287 1.1065984
4.4587097 -0.230643 1.2669315
3.8562608 -6.7308698 0.34384158
3.9577913 -5.4847703 0.94055057
4.5059967 0.096220225 0.60471439
4.4596901 -0.18519765 1.2223341
4.4575453 -0.15842162 1.3743993
3.929986 -5.5684495 0.93850613
4.4550843 -0.18474749 1.2221909
4.453855 -0.1730938 1.298721
3.8833735 -5.5998654 0.93655562
3.923064 -4.4767404 2.3660955
3.8456652 -5.450253 0.7756952
3.913763 -4.5273519 1.3735905
3.9127653 -4.4980378 1.5129244
3.9003696 -4.5267224 1.7978536
3.8066449 -5.4295988 0.77504653
3.8904624 -4.5335541 1.5152372
3.9641473 -3.7361159 2.2025023
3.7441614 -5.4419699 0.77231121
4.4732747 0.23793858 0.83226115
4.415349 -0.15396048 0.91406447
4.4034247 -0.15133983 1.2947403
3.9535925 -3.1674163 2.076829
3.6651685 -5.4293242 0.76983148
4.4564176 0.21837054 0.82785338
3.9443672 -3.1651413 1.9622712
3.9431584 -3.1482103 2.0725727
3.9403112 -3.1767642 1.6288478
3.6709976 -5.0152721 1.242523
3.9448161 -3.1295056 1.2963206
3.9385278 -3.1478467 1.406648
3.9276037 -3.1971197 1.5205114
4.3793907 -0.15599279 1.2951519
4.4573879 0.19298455 0.34739089
4.4549494 0.18407698 0.38117522
4.4566774 0.20634574 0.42987162
3.602587 -5.4384298 0.76712614
3.6515496 -5.0063362 1.2416874
3.578006 -5.4710984 0.76499677
3.5786319 -5.4316421 0.92850578
4.3759584 -0.16440964 0.91144711
3.9175541 -3.1275454 0.86316937
3.5338621 -5.4925594 0.76251262
3.5374596 -5.4353724 0.92701238
3.5245683 -5.392817 0.92712337
4.3559093 -0.15238744 1.2943784
4.4277859 0.19682322 0.82234937
3.4981749 -5.4524002 0.76257461
4.3488441 -0.16326995 1.2959328
2.2117102 -12.644059 2.7919135
3.4635627 -5.3908305 0.92498231
2.1704228 -12.63308 2.7900293
4.4011502 0.095959134 0.76959479
3.4444585 -5.4048381 0.76217014
3.4444578 -5.3733516 0.92452908
3.4498951 -5.3105607 1.0863733
3.3323092 -5.9551659 1.2638624
4.3396883 -0.15432985 1.1785846
3.3128998 -5.9517789 1.2632096
3.4004862 -5.4234691 0.75973773
3.4083407 -5.3487167 0.92355311
3.3615458 -5.5793056 1.0862069
3.2967057 -5.9082947 1.2613329
3.3975661 -5.300036 0.92380226
2.2575989 -11.026664 3.8099673
2.2308319 -11.031782 3.5011697
4.3543715 0.0050116461 0.92436016
2.2114742 -11.146562 2.3030729
1.9169441 -12.626047 2.7862566
4.3396659 -0.050998267 0.91904169
4.3553314 0.038642522 0.96122682
4.3530664 0.055522919 0.99544483
3.3043427 -5.3659334 0.91953558
3.8766897 -2.2457366 1.8743584
4.3469925 0.046530508 0.99487168
3.2710304 -5.4286957 0.91749138
4.3021507 -0.15590027 1.1392674
3.8570073 -2.2857084 1.8832728
3.2381554 -5.4935222 0.9154337
3.8383162 -2.3386884 1.8004701
4.3770862 0.13127448 0.38405862
3.8425596 -2.2654076 1.7861797
3.9635806 -1.6750642 1.748746
3.2087138 -5.4618411 0.75047493
4.3546238 0.11227713 0.80268282
4.2996755 -0.10488887 0.95024306
3.9579911 -1.6080458 1.734163
3.1677589 -5.4532819 0.74905127
3.963239 -1.5906594 1.4308033
3.9619601 -1.5846205 1.504228
3.9495573 -1.6175672 1.6595446
4.3449006 0.14020911 0.90325397
2.2322619 -9.8300047 0.012905475
3.1461082 -5.4335847 0.91276568
3.1424003 -5.424037 1.0775582
3.9546213 -1.6009054 1.3583724
3.9500158 -1.6101719 1.4331189
2.2132769 -9.7464066 0.018704664
3.9511802 -1.6056813 1.1386361
3.3062258 -4.4792509 1.6415255
3.3025951 -4.4730473 1.7836856
2.1857574 -9.7322035 0.018401254
3.796006 -2.2319891 1.0669131
3.7946262 -2.2106509 1.2416258
4.2563443 -0.14130144 1.292166
3.7884564 -2.2253597 0.9781478
4.2768369 -0.052526213 1.1329437
4.2416487 -0.16232765 1.2952348
1.6596086 -11.045705 3.5071003
2.0582438 -9.690979 0.014886246
1.6196593 -11.038465 3.5060728
3.0076077 -5.419414 0.74333149
3.016886 -5.3552217 0.90882921
2.0049398 -9.6394987 0.016129466
2.9953668 -5.3665457 0.90785348
3.3403816 -3.7495999 2.0781496
1.9609536 -9.6698751 0.011246483
2.9535975 -5.4701672 0.7391578
2.8694642 -5.7677946 1.0720018
4.2279391 -0.16358297 1.0991143
3.7244682 -2.2052052 1.3283846
3.3324945 -3.7666953 1.6962936
4.2413726 -0.11719863 0.9084686
2.9380846 -5.4499278 0.73917884
3.348531 -3.676089 1.4370466
3.3053367 -3.8132205 1.7018946
4.2950249 0.096146666 0.76154923
4.2412214 -0.05153263 1.095814
1.682983 -9.765708 3.2594082
1.7402327 -9.8753843 -0.017711166
2.0081646 -8.7864151 0.33409324
2.8244116 -5.5403919 0.89898551
2.8072355 -5.5831776 1.0680263
4.1986918 -0.15914717 1.2549134
4.1971183 -0.1596193 1.2948331
1.6675754 -9.6968498 3.2463367
1.6992974 -9.8956299 -0.021678373
2.7951248 -5.5679121 0.89748436
4.196434 -0.16448921 1.1373413
4.1958618 -0.14497392 1.2926906
1.6337928 -9.6901188 3.2454979
4.1974125 -0.16288771 0.98093998
4.2017488 -0.13787811 0.90455234
4.1980891 -0.14631926 0.94281417
4.1966 -0.14127471 1.0202017
3.6138227 -2.254148 1.5108472
1.6448349 -9.3536386 3.453763
3.5928957 -2.2896571 1.5151457
1.6071113 -9.371851 3.4584956
4.2754149 0.16533208 0.90160567
3.3406808 -3.1148949 1.9557817
3.3432934 -3.0904303 2.0661662
4.2434483 0.062858343 0.88902605
4.2051554 -0.048213378 1.0946984
3.3356121 -3.1253467 1.6171638
2.6847167 -5.5197463 0.72517729
2.7514489 -5.2578673 0.89953566
3.335779 -3.1165953 1.2815453
3.3304737 -3.1207345 1.3934491
3.3258746 -3.1224077 1.5048975
4.2008533 -0.059317697 0.87373066
2.6286516 -5.6907368 0.36873516
2.6021774 -5.7621555 0.53814936
3.3339043 -3.0889974 1.1700029
3.3273649 -3.0976298 1.2803173
4.1558986 -0.16816114 1.2558737
4.1581211 -0.15523882 1.2942985
2.6254132 -5.5714946 0.72060907
3.3184106 -3.1179819 0.94848436
3.5107012 -2.3339868 1.803179
1.6935318 -8.4985771 3.268471
1.6956524 -8.3892822 3.2449346
4.256803 0.18089899 0.87054199
2.5391815 -5.5565915 1.3989106
1.6465651 -8.3464165 3.2369707
2.4804051 -5.8052654 0.350678
4.15697 -0.11602727 0.94234747
4.1555829 -0.11584347 0.98060495
4.1357884 -0.15755001 1.1753298
2.4643109 -5.7900414 0.35089251
1.2416853 -9.8605213 0.23222372
2.5579307 -5.4119415 0.88976306
2.4371569 -5.802619 0.34822148
1.2018782 -9.8713875 0.22942305
2.5108504 -5.4937787 0.8868404
4.1281233 -0.16850838 0.89768773
1.1639502 -9.8827248 0.22669028
4.1237264 -0.17298871 0.97711945
4.1283917 -0.152871 1.0172789
4.1270509 -0.13898091 0.89994562
4.2069449 0.10188585 0.78891194
0.66617835 -10.80645 3.790205
4.1434836 -0.04659114 1.0929238
4.1048212 -0.15844852 1.174961
0.63044745 -10.784907 3.7866485
4.2266016 0.20050329 0.87067938
2.3296046 -5.7794242 0.34329671
0.60583764 -10.744196 3.7786973
2.3003795 -5.8013892 0.33971277
4.0959306 -0.17082365 0.8954699
4.1082726 -0.12796612 0.93896186
4.0929537 -0.15634975 1.0951093
4.0796394 -0.19188632 1.0147717
0.51600897 -10.665591 3.7647188
4.108809 -0.10579162 0.86265415
2.6073558 -4.4508743 2.2254088
2.6076536 -4.4327264 2.3735244
4.2084985 0.20645241 0.86997914
4.1015487 -0.10765219 0.900765
2.6072731 -4.4612694 1.6332952
2.6005924 -4.4640808 1.7805321
0.45196825 -10.617429 3.7565348
2.6297283 -4.3782587 1.336069
2.6053493 -4.4329448 1.4848338
0.42209142 -10.60113 3.754055
4.2035518 0.1712141 0.48900801
4.0900407 -0.086541682 1.1307954
4.118865 -0.016909016 0.87228137
4.2058563 0.18278722 0.4186407
4.1685691 0.083050653 0.48833153
2.1632259 -5.6227021 1.2203358
4.0512562 -0.1685878 1.255942
4.1615248 0.096190244 0.78366858
4.1573462 0.095563449 0.78315634
4.1543746 0.10077164 0.78373516
0.090590782 -11.070324 3.864696
4.1761389 0.13005035 0.38988739
4.1557794 0.083596282 0.48641354
4.1501894 0.096951902 0.74778742
0.047341656 -11.079908 3.8682506
4.0787454 -0.052130315 1.0912982
2.716959 -3.7189045 2.2186439
1.8046473 -6.2911053 1.2322252
2.7025397 -3.7221761 2.0854094
1.7671783 -6.3264017 1.2323357
2.6988542 -3.7441251 1.562783
2.6905911 -3.7523897 1.6940848
4.1050572 0.044215582 0.94829339
4.005424 -0.16260125 1.2553962
0.13550001 -10.231894 3.3817477
4.0528836 -0.040451489 1.0901936
0.13400969 -10.132545 3.3631978
0.13868903 -9.9364395 3.3263962
4.1576777 0.24383222 0.87025666
3.990674 -0.16221146 1.0924463
4.1068645 0.10372581 0.77939868
4.0079718 -0.088197425 1.1292557
0.13674992 -9.6549063 3.2739544
0.16698761 -9.5507097 3.542392
0.1090754 -9.6227503 3.268883
3.3296227 -1.7075522 1.7725145
4.1038938 0.097586058 0.36107975
3.3241918 -1.7054551 1.6891049
3.3361776 -1.6680011 1.7639887
4.0347328 0.013553439 0.97871739
3.9573913 -0.15588416 1.1729996
2.7243087 -3.0899632 1.9666435
3.9735389 -0.098797575 1.2083069
2.6901379 -3.1191859 2.0940948
3.3226981 -1.6516085 1.2010293
3.2702115 -1.7609296 1.3696461
-0.031928878 -9.5100651 3.2528169
0.16547869 -9.017725 3.4314849
4.1574383 0.29308158 0.4920873
3.9905336 -0.04570286 1.0886252
-0.055757638 -9.4809275 3.248276
0.16459291 -8.9388494 3.4151618
-0.21764348 -9.880497 2.1577582
-0.22902602 -9.8788404 2.4470439
-0.091499142 -9.4744148 3.2483633
0.14521095 -8.8988218 3.4077499
4.151721 0.29747775 0.49264008
1.5128369 -5.8281016 1.2089102
-0.2159034 -9.8507776 1.5785306
-0.23886529 -9.8761339 1.8690355
1.5015047 -5.7949824 1.2075088
2.0577321 -4.4435873 1.7810711
3.9204254 -0.1592823 1.0903894
2.0614955 -4.4134083 1.477312
0.15030466 -8.6433058 3.354672
0.1643627 -8.5405283 3.3327944
3.8996763 -0.16671535 1.2566702
-0.1773089 -9.2532034 3.2108099
0.15873756 -8.4782114 3.3202174
3.9574828 -0.037978508 1.0874496
-0.17840832 -9.2657652 2.0980771
-0.17372178 -9.229228 2.369472
-0.21625207 -9.2446079 3.2107394
0.1466071 -8.4171991 3.3082433
4.0225286 0.098018721 0.87585658
1.2962828 -5.9736004 1.2076322
-0.17385149 -9.2325573 1.545882
-0.1890472 -9.2403288 1.8214331
3.8858044 -0.15787551 1.1307304
-0.23430508 -9.1717997 1.8158729
0.11038312 -8.2076092 3.2670071
0.093176924 -8.1652355 3.259208
4.055274 0.21551353 0.82464504
0.070324317 -8.1395588 3.2551343
-0.34285405 -9.1113472 1.5362639
-0.26139879 -8.9131975 1.7961997
4.0402937 0.19204026 0.81980687
1.2455291 -5.6951036 1.1970911
3.8517768 -0.16258663 1.2145386
-0.21442668 -8.6617393 1.7777089
-0.026930332 -8.0590677 3.2438519
2.0946045 -3.694315 2.1022525
2.0821385 -3.7072423 2.245019
4.0073442 0.11576939 0.21482238
2.06862 -3.7428277 1.6983525
1.2152784 -5.4964728 1.1897389
4.0294566 0.19921091 0.42649963
1.2040704 -5.4642372 1.1883699
4.0068355 0.16975917 0.40970406
3.8602624 -0.051675953 1.0851845
3.9767234 0.12577091 0.3854675
3.9544418 0.12870535 0.80169433
1.8669029 -3.8364804 0.87499523
-0.091730423 -7.3959956 3.1135726
3.9556024 0.1166263 0.2000753
3.9473178 0.15880193 0.87483037
-0.13019952 -7.4045963 3.117599
3.9351084 0.096513763 0.32046199
3.7581334 -0.15785095 1.2574495
3.7608676 -0.13802612 1.428829
3.8563962 0.013545129 0.96843314
3.7501545 -0.12820491 1.3835207
2.1063011 -3.1082287 2.1230283
3.7268984 -0.1553763 1.4343796
3.7572191 -0.12557301 1.0004283
2.1023054 -3.1047769 1.5015843
3.7035992 -0.1902654 1.3969116
3.7070713 -0.1802716 1.440572
3.7238991 -0.16127324 1.1716009
3.7105167 -0.17690858 1.1286912
3.7137027 -0.14588501 1.4333295
3.7040546 -0.15172417 1.4351047
3.7271655 -0.1423998 0.91317618
3.9572883 0.23952006 0.50045413
3.7179673 -0.099066064 1.3800449
3.7080574 -0.1161662 0.99800175
3.8791993 0.2879515 0.87956315
3.6361067 -0.037432726 1.2041386
3.6571867 -0.0021524036 1.1186427
3.8348713 0.24909055 0.76787603
3.8367605 0.25082475 0.66188222
3.7300565 0.089825332 0.64953655
3.8000433 0.21889602 0.86540717
3.8352368 0.24501051 0.51117611
3.7666922 0.14553432 0.5474292
3.8543479 0.27067959 0.3664135
3.7762504 0.15977484 0.43011603
2.0899413 -2.2554524 1.5284158
3.7578702 0.11814331 0.13528046
3.7758517 0.15669018 0.29876983
3.7795403 0.16898786 0.39175117
2.1014407 -2.2331827 1.3164477
2.0576942 -2.2816589 1.5320933
-0.15625018 -5.5799575 0.36034301
3.7598126 0.14445938 0.33426461
3.731149 0.10419619 0.35669714
2.0570328 -2.2729886 1.3192166
1.4509623 -3.1066172 2.0341995
1.4726124 -3.0657356 2.159544
3.6568465 -0.011231568 0.14682676
1.4522967 -3.106276 1.6377921
3.7549922 0.18848997 0.82155973
-0.24551952 -5.5241356 1.7462797
-0.2165411 -5.4674635 1.3452725
-0.24558921 -5.4945908 1.5454106
-0.16718715 -5.4269333 0.36618155
-0.17831926 -5.4286561 0.56128091
-0.16967629 -5.4020786 0.75744212
-0.16351239 -5.3783545 0.36859757
-0.18376626 -5.3931022 0.56177932
-0.29111841 -5.416718 1.7371587
-0.19813962 -5.272706 1.9170877
-0.22190382 -5.2938519 1.5311954
-0.25216684 -5.3220949 1.7281637
-0.21810457 -5.3321719 0.3661184
-0.15936877 -5.194818 1.1414835
-0.26384026 -5.3262963 1.3372828
-0.35294199 -5.4357896 1.5411402
3.6418526 0.042178974 0.21342036
-0.16961244 -5.2197151 0.3749451
-0.17241019 -5.2098775 0.56698543
3.6063092 -0.0037540677 0.13295351
-0.16715933 -5.1747193 0.37707245
-0.17338924 -5.1697111 0.56787646
0.83658516 -3.6562774 2.3216279
3.6050062 0.0067891385 0.18839239
3.5866692 -0.004751794 0.12585926
-0.20573869 -5.1068444 0.3767471
-0.20244998 -5.0889468 0.56777054
-0.21596213 -5.0140753 1.8895211
-0.171891 -5.0252309 0.38301414
-0.18981104 -5.0361643 0.56988513
-0.16730788 -4.9813886 0.38523886
-0.17924175 -4.9842534 0.57183081
3.4395368 -0.12496714 0.98352087
3.6073399 0.054832216 0.35245484
-0.2149692 -4.9898663 0.56920207
-0.24278232 -4.9482136 1.6946715
3.4909871 -0.046684414 0.85428721
-0.20164067 -4.9348702 0.57140303
-0.17376414 -4.8740726 0.3891668
-0.17476903 -4.8625054 0.57494897
-0.14643508 -4.797112 0.39466053
-0.16303633 -4.8061242 0.57705992
-0.1745054 -4.7872157 0.57667887
-0.10174152 -4.5684042 2.3840613
3.5636325 0.040390432 0.23798792
-0.20258708 -4.7831397 0.57478398
-0.23334776 -4.747036 1.6767532
-0.39869466 -4.9453506 1.8873754
-0.17510694 -4.7244811 0.39519972
-0.18318643 -4.722333 0.57752258
-0.21393648 -4.6992292 1.4894623
3.506757 -0.022334078 0.14527141
-0.13834016 -4.6418881 0.40170211
-0.14873005 -4.6428127 0.58174402
-0.11664351 -4.4417062 2.3645651
-0.16195394 -4.5978036 0.4014582
-0.16863132 -4.5939865 0.58140421
-0.10225207 -4.3902311 2.3551672
3.5569673 0.079787321 0.34560177
-0.14800429 -4.4613853 1.6503665
-0.17401457 -4.5396461 0.40274924
-0.1706493 -4.5233288 0.58280325
-0.1480622 -4.4354005 1.4710939
-0.13198267 -4.4531984 0.40983018
-0.15972748 -4.4756975 0.5846197
2.0872602 -1.6239922 1.7447268
2.1262186 -1.5702899 1.828199
-0.12060139 -4.4033904 0.41279304
2.073189 -1.6413653 1.4626416
2.1057045 -1.5893493 1.6435153
2.1157513 -1.5709556 1.7340481
2.1084032 -1.5735146 1.8304019
2.0944405 -1.6104113 1.2727218
2.1244676 -1.5678563 1.3613609
2.0987449 -1.5928642 1.456745
3.3251925 -0.096775405 1.4546045
3.4580543 -0.015378661 0.13110451
-0.16977803 -4.399158 0.40867823
2.1123934 -1.5785372 1.1780466
2.0965874 -1.5914956 1.2714159
3.4490581 -0.01725132 0.12732065
-0.15006225 -4.3261795 0.58850902
-0.12751065 -4.2737069 0.41727728
-0.13627751 -4.2727327 0.59063381
2.1363111 -1.5293303 0.9040032
1.4898115 -2.2309849 2.004802
3.496356 0.047321338 0.0036807226
-0.16428813 -4.2779241 0.58848596
-0.37739825 -4.4615965 1.6541641
-0.39225978 -4.4672556 1.8367456
-0.1695531 -4.2592268 0.4141416
3.4556129 0.020506207 0.19622718
-0.39260489 -4.4537468 1.4727952
1.4430809 -2.2743313 1.5489126
-0.15748239 -4.214622 0.41692224
-0.15207583 -4.1968198 0.59105712
1.4578218 -2.252243 1.3180364
3.2896178 -0.10386863 1.0231998
3.3997271 -0.022417922 0.1635282
-0.16988273 -4.1501207 0.59070575
3.4078681 0.0077300589 0.48027164
-0.55523527 -4.4908752 1.6597944
3.4020469 -0.005561226 0.11484298
-0.16560744 -4.0894413 0.42096218
-0.1794716 -4.0943499 0.59112442
-0.15037867 -4.0296817 0.59456563
-0.026561083 -3.7699804 2.4198661
-0.11049187 -3.9602962 0.43072858
-0.14256583 -3.9860909 0.59600884
3.4223964 0.049657468 0.34731522
3.2241039 -0.10361252 1.4653499
3.354037 -0.016113192 0.15005592
-0.097532861 -3.7281728 2.4194806
-0.1180987 -3.7352855 0.76656598
-0.089206986 -3.6006477 2.3966317
-0.15212022 -3.7519073 0.59979951
-0.14966789 -3.7388475 0.76468247
-0.093580537 -3.5753019 2.392714
-0.14961645 -3.6588728 0.60170883
-0.099750496 -3.4945095 2.3795166
-0.15243879 -3.6315627 0.60199207
3.2806289 -0.0050284117 0.12794518
-0.17520002 -3.5989723 0.60084748
-0.15656108 -3.5477536 0.60318077
-0.094732009 -3.374764 2.3586838
3.0798039 -0.10389259 1.4798635
-0.17680651 -3.4837132 0.60275173
3.2453094 -0.0052966792 0.17166384
-0.15150477 -3.4302843 0.60561752
-0.19520158 -3.415169 0.6025061
3.0570111 -0.089764036 1.4798763
-0.17273551 -3.3671229 0.60505015
3.2065954 -0.0030038808 0.15910891
3.3077109 0.10302911 0.0036985101
-0.20174354 -3.3123853 0.6037038
3.2336791 0.050714437 0.34406242
-0.17965248 -3.2608066 0.60626131
-0.15994322 -3.2152705 0.6085313
2.9838409 -0.11031349 1.4361881
2.9975865 -0.09391842 1.4868785
3.3568876 0.18002869 -0.0035392938
-0.15706705 -3.1348627 0.6100269
-0.23123716 -3.1494958 0.60396731
2.9641979 -0.099415258 1.1680442
3.3497787 0.20252025 0.0016522062
2.9519897 -0.083155535 1.4900714
-0.14334154 -3.0157232 0.61293018
3.2626271 0.15049185 0.00088501227
2.9870319 -0.05260003 0.85275447
3.0800734 -0.0069651506 0.17233279
2.9038498 -0.094557554 1.4412279
2.9035387 -0.091600463 1.4967792
3.2575915 0.15341161 -0.00033189685
-0.19414248 -2.9339876 0.61009097
-0.17681961 -2.8906651 0.61208773
3.1706405 0.097775444 0.0018686918
-0.14147329 -2.8344729 0.61570185
2.8442435 -0.11106358 1.4491919
-0.21431348 -2.87573 0.60929495
2.8502083 -0.097008914 1.4466263
-0.17645301 -2.8162041 0.6131494
2.8527789 -0.082243063 1.5009861
3.3053861 0.24636751 -0.0030657044
-0.1851633 -2.7730961 0.61302996
3.3023062 0.24989615 -0.0032672868
3.0412199 0.051178329 0.34250724
2.8033726 -0.091515884 1.4503314
2.8017771 -0.089616589 1.5079583
3.2267449 0.19875601 0.0012438213
-0.15996711 -2.6803656 0.61628085
-0.15928236 -2.628979 0.61699039
2.8311381 -0.04727276 1.3304499
2.7643797 -0.10154748 1.2261722
-0.20256631 -2.6210368 0.61356688
2.8076949 -0.050309673 1.3322202
2.7449782 -0.096031561 1.4566385
2.7450159 -0.092718348 1.5150003
3.2076144 0.21862592 -0.00092175521
3.1267881 0.15116122 -0.0001645997
-0.16948622 -2.5673249 0.61691982
-0.10527099 -2.4971821 0.91131461
-0.15394504 -2.53299 0.61860263
3.0082324 0.078370959 0.33813217
-0.20938174 -2.5536299 0.61382139
2.9038723 -0.0083176922 0.17309071
-0.15660134 -2.4859037 0.61894083
2.7034788 -0.092400141 1.4602292
3.2691979 0.29719269 -0.0026777496
2.7066455 -0.07719703 1.5171272
3.1031199 0.16880938 -0.0051626568
-0.202333 -2.4771821 0.61528391
-0.16368428 -2.4234464 0.61907071
2.6740344 -0.10179796 1.2285459
3.2582927 0.30794796 -0.0043556774
3.1834953 0.24810575 -0.0025608682
-0.147181 -2.3866613 0.62083983
2.8545494 -0.0067024129 0.15709795
2.6427455 -0.095776387 1.466758
-0.14731537 -2.3416708 0.62131697
2.6365585 -0.087270074 1.5269909
-0.13441236 -2.3097274 0.62272525
2.8721917 0.050896283 0.35179976
2.5967116 -0.10022423 1.5337158
2.5757051 -0.10955461 1.4753988
2.5667889 -0.11301261 1.53923
-0.16225356 -2.264322 0.62087941
2.8580289 0.056669123 0.34883007
2.5477431 -0.12182093 1.4798883
2.5028946 -0.15254068 1.552826
-0.167564 -2.244364 0.62063581
2.4986141 -0.15297733 1.2371955
2.5070367 -0.12388099 1.4843367
3.2290311 0.35117078 -0.0045463196
3.1484678 0.29030856 -0.0059020105
2.5391991 -0.1158284 0.98968059
3.1462672 0.30194581 -0.0034028827
2.4903767 -0.098391511 1.482712
2.4814973 -0.10148723 1.5479616
3.055299 0.24793983 -0.0034512694
2.6967087 -0.0072495444 0.16802002
2.8060105 0.090883084 0.33969778
3.2065904 0.37864611 -0.007094048
2.6529193 -0.0045124688 0.15438382
2.454587 -0.054364216 1.5445546
2.4609606 -0.044268329 1.4788194
2.4535561 -0.046101835 1.5435138
3.1914117 0.39994517 -0.0082155643
3.1185758 0.34912574 -0.0027799048
2.4684806 -0.026299594 1.5388339
2.6395636 0.041483749 0.22203156
2.6539543 0.060593817 0.22949703
3.1064727 0.36658582 -0.0036897995
2.7142239 0.098219693 0.0011872052
2.7056031 0.10114758 -0.0015920766
2.6009419 0.040910058 0.21007814
2.6102202 0.05400132 0.34109479
2.3823111 -0.041727245 1.4869261
2.3880935 -0.03451943 1.5502025
2.6032157 0.057488803 0.33968148
2.3982964 -0.025298553 1.4196259
2.2909729 -0.093543544 1.5032748
2.3265469 -0.06643267 1.5625026
2.4381821 -0.0025252351 1.1665989
2.2565966 -0.10343832 1.5765884
2.3822668 -0.030359179 1.1688409
2.21574 -0.12021105 1.5841517
2.4802401 -0.0066832444 0.16533279
2.2208974 -0.10958842 1.5128788
2.1645927 -0.14277959 1.5938416
2.3486686 -0.049586918 0.85175085
2.2430825 -0.089066803 1.4405066
2.2446454 -0.084623985 1.5072066
3.1610172 0.4478198 -0.0096113784
3.0851896 0.39835602 -0.005324787
2.2505109 -0.088337936 1.1736835
3.1581256 0.45224732 -0.0098371524
2.4460564 -0.0028769143 0.15528221
2.5858541 0.094346419 0.27738646
2.6801672 0.14937562 -0.0014394799
2.2080846 -0.079215519 1.5105523
2.9849038 0.35322371 -0.0079259463
-0.126302 -1.547528 1.9465555
2.184916 -0.080345899 1.5827265
2.3036692 -0.031528693 0.84794813
2.5453732 0.096574128 0.32906124
-0.29172543 -1.6457672 1.7016227
2.1486447 -0.093030073 1.5891718
-0.14485022 -1.5221642 1.9455314
2.8648908 0.29757285 -0.01700842
-0.38215858 -1.6627851 1.709654
2.538563 0.1009262 0.00014158801
-0.15757813 -1.4908757 1.9431772
2.652317 0.17964846 -0.0064657936
-0.34547126 -1.6015344 1.7012309
2.1294057 -0.069534175 1.5180997
2.7604733 0.25507385 -0.0098613575
2.0992622 -0.073617011 1.5930877
3.0532007 0.4422729 -0.0096177133
2.6557012 0.19841769 -0.0012865954
-0.2974171 -1.5318455 1.691221
2.9560444 0.38934389 -0.012734341
-0.1882934 -1.4656253 1.2812843
-0.13083389 -1.4242498 1.4077884
-0.18842766 -1.4395152 1.8072015
3.1292799 0.5013684 -0.011230572
3.0488629 0.45271218 -0.00910025
-0.20438671 -1.4362397 1.6755719
2.0452559 -0.075859576 1.6005491
2.9515972 0.4000698 -0.012270014
-0.16739756 -1.415298 1.2781674
-0.12687157 -1.3845943 1.4049242
-0.1898416 -1.4027772 1.8034511
2.30038 0.026367139 0.18458486
2.3311777 0.052144606 0.33288783
-0.19446677 -1.3873781 1.8022602
2.0262566 -0.071203232 1.5298795
2.5128806 0.15359361 1.3821473e-05
-0.18268605 -1.3858626 1.2766829
2.8331921 0.34949061 -0.019594243
2.5079937 0.15823065 -0.0010460338
2.0020273 -0.065254316 1.531929
2.0022764 -0.061535325 1.6044399
2.1429482 -0.009732102 0.76642251
2.7340384 0.29894519 -0.012036617
2.3495355 0.097085901 0.27557251
1.9519325 -0.069073848 1.612177
2.105849 -0.0094434917 0.83067083
2.6231391 0.24942093 -0.00468079
-0.21596062 -1.333119 1.2741193
2.3066394 0.082387969 0.32969102
2.0855742 -0.013969455 0.76012498
-0.14450493 -1.2969959 0.75700241
1.9343383 -0.062925689 1.5393749
3.107254 0.54215747 -0.012160636
2.3285558 0.097439595 -0.0088115493
1.9027598 -0.066555895 1.6185055
3.1078835 0.54797101 -0.01029126
3.0217049 0.49898243 -0.011374293
-0.18856719 -1.2554281 1.3981322
1.887846 -0.069190204 1.5454223
2.6030612 0.26987481 -0.0091683352
2.482583 0.20225169 -0.0031976104
2.254329 0.085764423 0.24790366
1.8956342 -0.050011896 1.617394
2.9227808 0.45667076 -0.013049291
-0.12580977 -1.2126032 0.75746363
-0.17197691 -1.2076273 1.394376
2.2038126 0.06604512 0.2316896
1.8455802 -0.070674695 1.5504575
1.8514407 -0.063780367 1.6251363
-0.13624488 -1.2021005 0.75664181
2.8074412 0.40530571 -0.01944617
2.7023077 0.34737822 -0.016222002
-0.13435665 -1.1520567 1.3894162
1.8048477 -0.07635995 1.4796777
-0.070787914 -1.0867968 2.0149314
2.5960164 0.29752713 -0.0070140031
2.0946598 0.025201354 0.047147699
1.8078486 -0.059662603 1.5535868
1.7930307 -0.063963734 1.6331486
-0.11936425 -1.1375293 0.75714231
2.3054013 0.14655939 -0.0096108941
-0.1621142 -1.1305118 1.388913
3.007663 0.53504586 -0.010005979
2.9075809 0.48064062 -0.015198666
2.3018425 0.15311469 -0.0099250143
2.0789838 0.042292979 0.19422087
2.1534793 0.087226361 0.29078308
1.749694 -0.066713549 1.639442
2.4582827 0.24640074 -0.0053223874
2.0044088 0.010912548 0.16999222
-0.22833093 -1.1057606 1.9068406
1.7050742 -0.079366937 1.6471359
2.7882211 0.42951447 -0.023471385
2.4533949 0.25163373 -0.0064017978
2.0407112 0.047489159 0.33144096
1.7328753 -0.058144238 1.5621542
1.6519086 -0.096854188 1.6566029
2.1011395 0.086843424 0.27716726
3.0805311 0.59799516 -0.012693715
2.9882808 0.54926401 -0.016896384
2.8997366 0.50280714 -0.014264347
1.7837176 -0.031393725 1.101084
-0.25953895 -1.0681137 1.9063586
2.1162395 0.099804178 -0.011219737
2.7798402 0.45308048 -0.022680348
2.6779468 0.40049511 -0.016929442
1.9532678 0.025411347 0.00089937396
-0.48383161 -1.1535501 1.8060242
1.5901458 -0.088251874 1.5821989
1.5933337 -0.082779363 1.6630315
2.7802627 0.46000883 -0.021098474
2.5707965 0.35271272 -0.0078975623
2.273319 0.19917752 -0.013686672
2.1070027 0.11354081 -0.012612283
1.9402041 0.031809144 0.076559104
1.8990092 0.013598468 0.14047645
1.6338577 -0.059179306 1.4944012
1.5575813 -0.094127201 1.586675
1.8208669 -0.013069657 0.42876685
1.6839958 -0.048738036 0.94753337
1.7082089 -0.029155482 1.1004361
2.0069807 0.083818816 0.25233123
2.4333484 0.29808778 -0.0069403057
1.9001955 0.030618636 0.064151593
1.5888999 -0.05258457 1.6600652
2.5565128 0.36872447 -0.011263581
1.9069653 0.041306809 -0.012448784
1.5047628 -0.086254984 1.5920825
-0.1067454 -0.87956566 1.9949067
1.6539216 -0.023746582 1.0998123
-0.12136292 -0.88792098 1.6203972
2.0882843 0.15052886 -0.014346633
-0.23006676 -0.91304547 1.8861984
1.5013162 -0.062476132 1.6735116
2.9751582 0.59793383 -0.012973716
2.8730962 0.54735911 -0.018347166
2.2570457 0.243826 -0.013419238
1.5644314 -0.045878679 1.1001302
1.441442 -0.083297282 1.5993053
1.7011117 -0.010810824 0.40533504
1.3458152 -0.12563632 1.7027453
3.0528333 0.64120901 -0.017946105
2.762706 0.49891019 -0.021964598
2.6548865 0.44623145 -0.019071613
2.2506588 0.24840932 -0.015204103
1.5389409 -0.048421122 1.1000595
1.3784193 -0.10736507 1.5239537
1.2741764 -0.14952619 1.7156129
2.7568052 0.50289643 -0.02405699
2.6535947 0.45297927 -0.018472152
2.548099 0.40211591 -0.0093354946
1.7798315 0.037797257 0.18868953
1.2569127 -0.14558078 1.7175962
3.0497336 0.65149349 -0.01734844
1.5434824 -0.030977326 0.94028771
1.4886045 -0.050081678 1.0997776
1.7667134 0.034336414 0.023333065
